# .PCD v0.7 - Point Cloud Data file format
VERSION 0.7
FIELDS x y z
SIZE 4 4 4
TYPE F F F
COUNT 1 1 1
WIDTH 1373
HEIGHT 1
VIEWPOINT 0 0 0 1 0 0 0
POINTS 1373
DATA ascii
0.0036653262 0.01098 0.054813713
0.0028587766 0.01098 0.058036242
0.0029805768 0.01098 0.057999667
-0.035082631 0.01098 0.050429065
-0.035417609 0.01098 0.050763354
-0.035113424 0.01098 0.050439116
-0.035104018 0.01098 0.050434757
-0.035160545 0.01098 0.05129138
-0.035091609 0.01098 0.050430536
-0.033359602 0.01098 0.051285431
-0.034279838 0.01098 0.053150076
-0.035170823 0.01098 0.052705355
-0.034379125 0.01098 0.053439368
-0.033066265 0.01098 0.051230624
-0.033313669 0.01098 0.052234665
-0.03303469 0.01098 0.052163169
-0.034198936 0.01098 0.051694714
-0.033732139 0.01098 0.051078431
-0.034519635 0.01098 0.051552214
-0.03503827 0.01098 0.050439116
-0.035062753 0.01098 0.050430898
-0.033777468 0.01098 0.052489705
-0.034198936 0.01098 0.051715322
-0.033978544 0.01098 0.05267863
-0.034777693 0.01098 0.052173808
-0.035008848 0.01098 0.052464671
-0.035045005 0.01098 0.052520458
-0.035333164 0.01098 0.053045519
-0.035456277 0.01098 0.053468559
-0.035506424 0.01098 0.053870887
-0.034444593 0.01098 0.053967115
-0.035509117 0.01098 0.05398757
-0.034444593 0.01098 0.053973984
-0.034211617 0.01098 0.054904863
-0.033864804 0.01098 0.055348001
-0.033642534 0.01098 0.055519473
-0.033136293 0.01098 0.05573526
-0.033923693 0.01098 0.056472775
-0.032799996 0.01098 0.056696679
-0.032432228 0.01098 0.055757727
-0.031770855 0.01098 0.056526177
-0.031330023 0.01098 0.056329343
-0.031315163 0.01098 0.055037156
-0.03035309 0.01098 0.055412915
-0.030148242 0.01098 0.055019934
-0.031069946 0.01098 0.05449944
-0.030009549 0.01098 0.054592762
-0.031010322 0.01098 0.054183822
-0.031231692 0.01098 0.053030003
-0.03025678 0.01098 0.052643336
-0.03139887 0.01098 0.052777823
-0.031807005 0.01098 0.05240621
-0.031151069 0.01098 0.051669851
-0.032054499 0.01098 0.052274469
-0.03199264 0.01098 0.051299993
-0.03273185 0.01098 0.052138396
-0.032718387 0.01098 0.051210292
-0.029244535 0.01098 0.051346764
-0.029231336 0.01098 0.05135997
-0.029228795 0.01098 0.056572985
-0.028057609 0.01098 0.056558277
-0.02802984 0.01098 0.051305819
-0.028050091 0.01098 0.051374339
-0.029218908 0.01098 0.056561414
-0.028094342 0.01098 0.056436099
-0.028072115 0.01098 0.051417939
-0.02920771 0.01098 0.051399916
-0.028085124 0.01098 0.051466208
-0.028107347 0.01098 0.051662575
-0.029150555 0.01098 0.052468784
-0.029149046 0.01098 0.053660028
-0.029149046 0.01098 0.054410592
-0.028120816 0.01098 0.055889804
-0.029167384 0.01098 0.056310557
-0.029186655 0.01098 0.056474969
-0.027395085 0.01098 0.055666231
-0.027362183 0.01098 0.055692054
-0.027442621 0.01098 0.055666231
-0.02486079 0.01098 0.051369421
-0.026005637 0.01098 0.051386435
-0.023835164 0.01098 0.055772357
-0.026014024 0.01098 0.051370639
-0.026043775 0.01098 0.051347762
-0.026031464 0.01098 0.051352732
-0.024836134 0.01098 0.051305819
-0.026025739 0.01098 0.0513569
-0.024852227 0.01098 0.051359173
-0.024836134 0.01098 0.051346764
-0.024869788 0.01098 0.051384401
-0.024891337 0.01098 0.051451955
-0.024913639 0.01098 0.051652107
-0.024931621 0.01098 0.053660028
-0.025948333 0.01098 0.053660028
-0.017636463 0.01098 0.054151423
-0.017667351 0.01098 0.053486135
-0.018927883 0.01098 0.05302611
-0.019092184 0.01098 0.052780539
-0.017954461 0.01098 0.052646931
-0.018194575 0.01098 0.052278146
-0.018849326 0.01098 0.051673077
-0.020013623 0.01098 0.052198898
-0.020399842 0.01098 0.051217161
-0.021004248 0.01098 0.052247301
-0.021372892 0.01098 0.051378213
-0.02179129 0.01098 0.05156447
-0.021465261 0.01098 0.052500837
-0.021655513 0.01098 0.052678172
-0.021956086 0.01098 0.053139649
-0.022056729 0.01098 0.053424485
-0.022115134 0.01098 0.053745013
-0.022126326 0.01098 0.053967115
-0.022126326 0.01098 0.053973984
-0.023190849 0.01098 0.054001313
-0.022098869 0.01098 0.054307867
-0.022019282 0.01098 0.054620553
-0.023034081 0.01098 0.054946445
-0.021729648 0.01098 0.055149827
-0.022615355 0.01098 0.055707149
-0.021327114 0.01098 0.055515066
-0.022327498 0.01098 0.056012906
-0.021084508 0.01098 0.055643618
-0.020824652 0.01098 0.05572924
-0.021608712 0.01098 0.056470424
-0.02012001 0.01098 0.055750258
-0.019450806 0.01098 0.056528091
-0.019835068 0.01098 0.055677358
-0.018313948 0.01098 0.055777036
-0.019181851 0.01098 0.055254277
-0.018870721 0.01098 0.054792382
-0.018767586 0.01098 0.054511242
-0.017705712 0.01098 0.054609872
-0.016339736 0.01098 0.056304913
-0.013821177 0.01098 0.056567129
-0.01382954 0.01098 0.056560542
-0.013837737 0.01098 0.056551572
-0.016610669 0.01098 0.056034107
-0.01384533 0.01098 0.056540053
-0.015598021 0.01098 0.055674735
-0.015512417 0.01098 0.055724174
-0.01591615 0.01098 0.056519303
-0.016020695 0.01098 0.052776475
-0.013826977 0.01098 0.051373538
-0.016787723 0.01098 0.055677302
-0.016835013 0.01098 0.055464078
-0.015845094 0.01098 0.055269174
-0.016813051 0.01098 0.054922763
-0.015851494 0.01098 0.055063996
-0.016748834 0.01098 0.054735605
-0.01583207 0.01098 0.054954004
-0.01665785 0.01098 0.054566808
-0.016604273 0.01098 0.054491207
-0.013903064 0.01098 0.053660177
-0.017001946 0.01098 0.053238492
-0.015996629 0.01098 0.053138535
-0.01692133 0.01098 0.053426269
-0.013872045 0.01098 0.056446888
-0.014278422 0.01098 0.056628518
-0.016724315 0.01098 0.05188939
-0.013845837 0.01098 0.051396739
-0.014063521 0.01098 0.051314518
-0.014858496 0.01098 0.05445857
-0.014953092 0.01098 0.054452557
-0.015042741 0.01098 0.0544517
-0.015318248 0.01098 0.053628556
-0.016011776 0.01098 0.054096784
-0.015947586 0.01098 0.052568205
-0.016979376 0.01098 0.052312188
-0.015609213 0.01098 0.052261021
-0.015597686 0.01098 0.051339805
-0.015720412 0.01098 0.052322794
-0.016237715 0.01098 0.051525738
-0.016373394 0.01098 0.051599182
-0.015327731 0.01098 0.052175086
-0.015131497 0.01098 0.052158784
-0.014824286 0.01098 0.051292136
-0.015748788 0.01098 0.054768257
-0.015131497 0.01098 0.055802826
-0.015098948 0.01098 0.056640863
-0.014984844 0.01098 0.055795498
-0.014858496 0.01098 0.055789184
-0.014624841 0.01098 0.056635045
-0.015823502 0.01098 0.053407367
-0.015628438 0.01098 0.053542845
-0.016135497 0.01098 0.054054283
-0.016011776 0.01098 0.054083198
-0.013866019 0.01098 0.051461685
-0.01487107 0.01098 0.052175555
-0.014251218 0.01098 0.051305711
-0.014867334 0.01098 0.052177802
-0.014863318 0.01098 0.052181773
-0.014860584 0.01098 0.052187465
-0.0075494768 0.01098 0.053946614
-0.0086417384 0.01098 0.053623002
-0.008722201 0.01098 0.053307798
-0.0090122409 0.01098 0.052780502
-0.008114581 0.01098 0.052278221
-0.0087693594 0.01098 0.051673103
-0.0096671702 0.01098 0.052285206
-0.0096070543 0.01098 0.051305186
-0.010347325 0.01098 0.052151807
-0.010319848 0.01098 0.051217161
-0.011293112 0.01098 0.05137825
-0.011711511 0.01098 0.051564518
-0.012081822 0.01098 0.051810239
-0.012402682 0.01098 0.052110162
-0.011740542 0.01098 0.052891057
-0.012670618 0.01098 0.052459832
-0.012880377 0.01098 0.052854266
-0.012035138 0.01098 0.053745013
-0.012046332 0.01098 0.053973984
-0.013110854 0.01098 0.053994443
-0.013110854 0.01098 0.054001313
-0.013070573 0.01098 0.054491535
-0.011939269 0.01098 0.054620653
-0.011814076 0.01098 0.054902628
-0.01164962 0.01098 0.055149928
-0.012535327 0.01098 0.055707242
-0.011468476 0.01098 0.055344321
-0.01100474 0.01098 0.055643544
-0.010469284 0.01098 0.055771235
-0.010347325 0.01098 0.055775441
-0.0098605435 0.01098 0.05665331
-0.009101877 0.01098 0.055254277
-0.0079681352 0.01098 0.055425983
-0.0077643087 0.01098 0.055035442
-0.0076257442 0.01098 0.054609846
-0.0047532441 0.01098 0.051364295
-0.004771824 0.01098 0.051305763
-0.0047652647 0.01098 0.051351078
-0.0047452673 0.01098 0.051378418
-0.0036452059 0.01098 0.051350404
-0.0036390312 0.01098 0.051346723
-0.0054590711 0.01098 0.055674728
-0.0036559254 0.01098 0.056563005
-0.0058022738 0.01098 0.056519303
-0.0052279895 0.01098 0.055766683
-0.0055482807 0.01098 0.055611316
-0.0055784453 0.01098 0.055584326
-0.0056504523 0.01098 0.05550319
-0.0065107541 0.01098 0.05602923
-0.0066272961 0.01098 0.055848751
-0.0067209434 0.01098 0.055631641
-0.0057540862 0.01098 0.055300001
-0.0048741689 0.01098 0.053414382
-0.0064914385 0.01098 0.051305763
-0.0059604803 0.01098 0.053675823
-0.0061646495 0.01098 0.053806722
-0.0036447775 0.01098 0.056571458
-0.005595414 0.01098 0.054442573
-0.0063764229 0.01098 0.053982355
-0.0057744496 0.01098 0.054804992
-0.0067307493 0.01098 0.054577887
-0.0068054097 0.01098 0.055079408
-0.0057837144 0.01098 0.055174045
-0.004137191 0.01098 0.056635279
-0.0055007217 0.01098 0.054352086
-0.0050738072 0.01098 0.055791233
-0.0054141087 0.01098 0.056607749
-0.004962787 0.01098 0.055795956
-0.0047786944 0.01098 0.056649018
-0.004806105 0.01098 0.055788122
-0.0046899244 0.01098 0.055782314
-0.0036833389 0.01098 0.051430687
-0.0047210287 0.01098 0.051474921
-0.0046946965 0.01098 0.052017201
-0.0074980436 0.01098 0.051359147
-0.0071853995 0.01098 0.051732037
-0.0064737303 0.01098 0.051305946
-0.0050607333 0.01098 0.054165743
-0.0036770357 0.01098 0.056522466
-0.0037132036 0.01098 0.056087725
-0.0046899244 0.01098 0.054158229
-0.0037209308 0.01098 0.054410744
-0.0046899244 0.01098 0.053414382
-0.0037209308 0.01098 0.053660028
-0.0046899244 0.01098 0.053141367
-0.0064449096 0.012 0.059516784
0.0010550916 0.012 0.072507173
-0.0084402431 0.012 0.061191071
-0.0091900993 0.012 0.06226198
-0.007515816 0.012 0.071757317
-0.0064449096 0.012 0.072507173
0.0048050899 0.012 0.06601198
0.0046911482 0.012 0.064709619
-0.0026949095 0.012 0.05851198
-0.0039972709 0.012 0.058625922
-0.0097426046 0.012 0.068577133
-0.0039972709 0.012 0.073398039
-0.0084402431 0.012 0.070832886
0.0030504242 0.012 0.070832886
0.0038002804 0.012 0.069761984
0.0046911482 0.012 0.067314342
0.014933765 -0.0103 0.041884128
0.014933765 -0.0094999997 0.041884128
0.01505713 -0.0094999997 0.041889623
0.015179761 -0.0094999997 0.041875109
0.015298434 -0.0094999997 0.041840971
0.01541003 -0.0103 0.041788097
0.015511615 -0.0103 0.041717887
0.015511615 -0.0094999997 0.041717887
0.015600519 -0.0103 0.041632183
0.015600519 -0.0094999997 0.041632183
0.015674403 -0.0103 0.041533239
0.015674403 -0.0094999997 0.041533239
0.015731325 -0.0103 0.041423656
0.015731325 -0.0094999997 0.041423656
0.01440876 -0.0103 0.042347953
0.014439356 -0.0094999997 0.042396616
0.01440876 -0.0094999997 0.042347953
0.014386674 -0.0103 0.042294879
0.014373712 -0.0103 0.042238876
0.014373712 -0.0094999997 0.042238876
0.014370233 -0.0094999997 0.042181496
0.014376335 -0.0103 0.042124335
0.014376335 -0.0094999997 0.042124335
0.014391849 -0.0094999997 0.042068984
0.014416341 -0.0094999997 0.042016979
0.014489312 -0.0103 0.041928656
0.014489312 -0.0094999997 0.041928656
0.014587194 -0.0094999997 0.041869111
0.014642175 -0.0103 0.041852336
0.014642175 -0.0094999997 0.041852336
0.014699182 -0.0103 0.041844927
0.014699182 -0.0094999997 0.041844927
0.014756626 -0.0103 0.041847091
0.014756626 -0.0094999997 0.041847091
0.014812911 -0.0103 0.041858766
0.014560001 -0.0094999997 0.043452449
0.014626442 -0.0103 0.043348361
0.014704958 -0.0103 0.043115061
0.014675189 -0.0094999997 0.043234903
0.014704958 -0.0094999997 0.043115061
0.014714969 -0.0103 0.042991977
0.014704958 -0.0103 0.042868897
0.014714969 -0.0094999997 0.042991977
0.014704958 -0.0094999997 0.042868897
0.014675189 -0.0103 0.042749055
0.014626442 -0.0103 0.042635597
0.014626442 -0.0094999997 0.042635597
0.014560001 -0.0103 0.042531509
0.014477611 -0.0094999997 0.042439524
0.014535762 -0.0103 0.044089168
0.014489312 -0.0103 0.044055302
0.014449133 -0.0103 0.044014193
0.014449133 -0.0094999997 0.044014193
0.014416341 -0.0094999997 0.043966979
0.014376335 -0.0094999997 0.043859623
0.014376335 -0.0103 0.043859623
0.01440876 -0.0103 0.043636005
0.014439356 -0.0094999997 0.043587342
0.015769791 -0.0094999997 0.044677645
0.015674403 -0.0103 0.044450719
0.015600519 -0.0103 0.044351771
0.015600519 -0.0094999997 0.044351771
0.015511615 -0.0103 0.044266067
0.01541003 -0.0094999997 0.044195861
0.01541003 -0.0103 0.044195861
0.015298434 -0.0094999997 0.044142988
0.015179761 -0.0094999997 0.044108849
0.014933765 -0.0094999997 0.04409983
0.014933765 -0.0103 0.04409983
0.014812911 -0.0103 0.044125192
0.014812911 -0.0094999997 0.044125192
0.01644039 -0.0103 0.041306313
0.016478857 -0.0103 0.041423656
0.016535779 -0.0103 0.041533239
0.016609663 -0.0103 0.041632183
0.016698567 -0.0094999997 0.041717887
0.01703042 -0.0103 0.041875109
0.017153053 -0.0103 0.041889623
0.017153053 -0.0094999997 0.041889623
0.015769791 -0.0103 0.041306313
0.015787821 -0.0094999997 0.04125173
0.015814669 -0.0094999997 0.041200899
0.015814669 -0.0103 0.041200899
0.015939562 -0.0103 0.041084308
0.015939562 -0.0094999997 0.041084308
0.015992114 -0.0094999997 0.04106101
0.016047807 -0.0103 0.041046772
0.016047807 -0.0094999997 0.041046772
0.016105091 -0.0103 0.041041978
0.016162375 -0.0094999997 0.041046772
0.016162375 -0.0103 0.041046772
0.016218068 -0.0103 0.04106101
0.016270621 -0.0103 0.041084308
0.016360594 -0.0103 0.041155238
0.016360594 -0.0094999997 0.041155238
0.016395511 -0.0103 0.041200899
0.016395511 -0.0094999997 0.041200899
0.016422359 -0.0103 0.04125173
0.01644039 -0.0094999997 0.041306313
0.01644039 -0.0094999997 0.044677645
0.016395511 -0.0103 0.04478306
0.016318573 -0.0103 0.044867948
0.016218068 -0.0103 0.044922948
0.016270621 -0.0094999997 0.04489965
0.016218068 -0.0094999997 0.044922948
0.015992114 -0.0103 0.044922948
0.015939562 -0.0094999997 0.04489965
0.01589161 -0.0094999997 0.044867948
0.015849588 -0.0094999997 0.04482872
0.015849588 -0.0103 0.04482872
0.015814669 -0.0103 0.04478306
0.015814669 -0.0094999997 0.04478306
0.015769791 -0.0103 0.044677645
0.015787821 -0.0094999997 0.044732228
0.017276416 -0.0103 0.04409983
0.017397271 -0.0094999997 0.044125192
0.017276416 -0.0094999997 0.04409983
0.017153053 -0.0094999997 0.044094335
0.01703042 -0.0103 0.044108849
0.016911747 -0.0094999997 0.044142988
0.016698567 -0.0103 0.044266067
0.016609663 -0.0103 0.044351771
0.016609663 -0.0094999997 0.044351771
0.016535779 -0.0103 0.044450719
0.016478857 -0.0103 0.044560302
0.016478857 -0.0094999997 0.044560302
0.017650181 -0.0094999997 0.042531509
0.017534992 -0.0103 0.042749055
0.017495213 -0.0103 0.042991977
0.017505223 -0.0094999997 0.042868897
0.017534992 -0.0103 0.043234903
0.017397271 -0.0103 0.041858766
0.017453557 -0.0103 0.041847091
0.017511001 -0.0103 0.041844927
0.017453557 -0.0094999997 0.041847091
0.017511001 -0.0094999997 0.041844927
0.017622987 -0.0103 0.041869111
0.017622987 -0.0094999997 0.041869111
0.017674418 -0.0094999997 0.04189479
0.01776105 -0.0103 0.041969765
0.017818334 -0.0103 0.042068984
0.017818334 -0.0094999997 0.042068984
0.017833846 -0.0103 0.042124335
0.017839948 -0.0094999997 0.042181496
0.017823508 -0.0094999997 0.042294879
0.017801421 -0.0094999997 0.042347953
0.017770825 -0.0103 0.042396616
0.017770825 -0.0094999997 0.042396616
0.017801421 -0.0103 0.043636005
0.017823508 -0.0103 0.04368908
0.017836468 -0.0094999997 0.043745082
0.017839948 -0.0094999997 0.043802463
0.017839948 -0.0103 0.043802463
0.017833846 -0.0103 0.043859623
0.017833846 -0.0094999997 0.043859623
0.01779384 -0.0103 0.043966979
0.017818334 -0.0094999997 0.043914974
0.01779384 -0.0094999997 0.043966979
0.01776105 -0.0094999997 0.044014193
0.017720869 -0.0103 0.044055302
0.017720869 -0.0094999997 0.044055302
0.017674418 -0.0103 0.044089168
0.017622987 -0.0094999997 0.044114843
0.017622987 -0.0103 0.044114843
0.017568005 -0.0103 0.044131622
0.017568005 -0.0094999997 0.044131622
0.017511001 -0.0094999997 0.044139031
0.017511001 -0.0103 0.044139031
0.017453557 -0.0103 0.044136867
-0.048066236 -0.0103 0.041884128
-0.047701567 -0.0103 0.041840971
-0.047589973 -0.0094999997 0.041788097
-0.047488384 -0.0094999997 0.041717887
-0.047488384 -0.0103 0.041717887
-0.047399484 -0.0094999997 0.041632183
-0.047399484 -0.0103 0.041632183
-0.047325596 -0.0103 0.041533239
-0.047268674 -0.0103 0.041423656
-0.047268674 -0.0094999997 0.041423656
-0.04852239 -0.0103 0.042439524
-0.048560642 -0.0103 0.042396616
-0.048629768 -0.0103 0.042181496
-0.048629768 -0.0094999997 0.042181496
-0.048623666 -0.0103 0.042124335
-0.048608154 -0.0103 0.042068984
-0.048550867 -0.0103 0.041969765
-0.048550867 -0.0094999997 0.041969765
-0.048412807 -0.0103 0.041869111
-0.048412807 -0.0094999997 0.041869111
-0.048357822 -0.0103 0.041852336
-0.048300818 -0.0103 0.041844927
-0.048357822 -0.0094999997 0.041852336
-0.048300818 -0.0094999997 0.041844927
-0.048243374 -0.0103 0.041847091
-0.048243374 -0.0094999997 0.041847091
-0.048324808 -0.0103 0.043234903
-0.048295043 -0.0103 0.043115061
-0.04828503 -0.0103 0.042991977
-0.04828503 -0.0094999997 0.042991977
-0.048295043 -0.0094999997 0.042868897
-0.048295043 -0.0103 0.042868897
-0.048324808 -0.0094999997 0.042749055
-0.048373558 -0.0094999997 0.042635597
-0.048373558 -0.0103 0.042635597
-0.048440002 -0.0103 0.042531509
-0.048187092 -0.0094999997 0.044125192
-0.048243374 -0.0103 0.044136867
-0.048300818 -0.0103 0.044139031
-0.048357822 -0.0103 0.044131622
-0.048412807 -0.0094999997 0.044114843
-0.048464239 -0.0103 0.044089168
-0.048464239 -0.0094999997 0.044089168
-0.048510686 -0.0094999997 0.044055302
-0.048550867 -0.0103 0.044014193
-0.048608154 -0.0103 0.043914974
-0.048583657 -0.0094999997 0.043966979
-0.048608154 -0.0094999997 0.043914974
-0.048623666 -0.0094999997 0.043859623
-0.048591241 -0.0094999997 0.043636005
-0.048560642 -0.0094999997 0.043587342
-0.047268674 -0.0103 0.044560302
-0.047268674 -0.0094999997 0.044560302
-0.047488384 -0.0103 0.044266067
-0.047488384 -0.0094999997 0.044266067
-0.047589973 -0.0103 0.044195861
-0.047589973 -0.0094999997 0.044195861
-0.047701567 -0.0103 0.044142988
-0.047701567 -0.0094999997 0.044142988
-0.04782024 -0.0094999997 0.044108849
-0.047942869 -0.0103 0.044094335
-0.047942869 -0.0094999997 0.044094335
-0.046559609 -0.0103 0.041306313
-0.046521142 -0.0103 0.041423656
-0.04646422 -0.0094999997 0.041533239
-0.04646422 -0.0103 0.041533239
-0.04639034 -0.0094999997 0.041632183
-0.046301432 -0.0094999997 0.041717887
-0.046199851 -0.0094999997 0.041788097
-0.045969579 -0.0103 0.041875109
-0.045969579 -0.0094999997 0.041875109
-0.045846947 -0.0103 0.041889623
-0.045846947 -0.0094999997 0.041889623
-0.045723584 -0.0094999997 0.041884128
-0.047230206 -0.0094999997 0.041306313
-0.047230206 -0.0103 0.041306313
-0.047212176 -0.0103 0.04125173
-0.047185332 -0.0103 0.041200899
-0.047185332 -0.0094999997 0.041200899
-0.047150411 -0.0094999997 0.041155238
-0.047007889 -0.0094999997 0.04106101
-0.046952195 -0.0103 0.041046772
-0.046894908 -0.0103 0.041041978
-0.046781935 -0.0103 0.04106101
-0.046729378 -0.0094999997 0.041084308
-0.046681426 -0.0103 0.04111601
-0.046681426 -0.0094999997 0.04111601
-0.046639405 -0.0094999997 0.041155238
-0.046604488 -0.0103 0.041200899
-0.046604488 -0.0094999997 0.041200899
-0.04657764 -0.0103 0.04125173
-0.04657764 -0.0094999997 0.04125173
-0.04657764 -0.0103 0.044732228
-0.046604488 -0.0103 0.04478306
-0.046639405 -0.0103 0.04482872
-0.046604488 -0.0094999997 0.04478306
-0.046681426 -0.0103 0.044867948
-0.046729378 -0.0103 0.04489965
-0.046729378 -0.0094999997 0.04489965
-0.046781935 -0.0103 0.044922948
-0.046781935 -0.0094999997 0.044922948
-0.046837628 -0.0094999997 0.044937186
-0.046894908 -0.0094999997 0.04494198
-0.047007889 -0.0103 0.044922948
-0.047060438 -0.0103 0.04489965
-0.047007889 -0.0094999997 0.044922948
-0.047060438 -0.0094999997 0.04489965
-0.047108389 -0.0094999997 0.044867948
-0.047185332 -0.0103 0.04478306
-0.047150411 -0.0094999997 0.04482872
-0.045602731 -0.0094999997 0.044125192
-0.045602731 -0.0103 0.044125192
-0.045846947 -0.0094999997 0.044094335
-0.046088252 -0.0103 0.044142988
-0.04639034 -0.0094999997 0.044351771
-0.04639034 -0.0103 0.044351771
-0.04646422 -0.0094999997 0.044450719
-0.046521142 -0.0103 0.044560302
-0.045267429 -0.0103 0.042439524
-0.045416258 -0.0103 0.042635597
-0.045416258 -0.0094999997 0.042635597
-0.045465007 -0.0103 0.042749055
-0.045494776 -0.0103 0.042868897
-0.045504786 -0.0103 0.042991977
-0.045504786 -0.0094999997 0.042991977
-0.045494776 -0.0103 0.043115061
-0.045465007 -0.0103 0.043234903
-0.045416258 -0.0103 0.043348361
-0.045416258 -0.0094999997 0.043348361
-0.045349821 -0.0103 0.043452449
-0.045602731 -0.0103 0.041858766
-0.045546442 -0.0103 0.041847091
-0.045546442 -0.0094999997 0.041847091
-0.045488998 -0.0103 0.041844927
-0.045431994 -0.0103 0.041852336
-0.045488998 -0.0094999997 0.041844927
-0.045431994 -0.0094999997 0.041852336
-0.045377012 -0.0094999997 0.041869111
-0.045325581 -0.0094999997 0.04189479
-0.04527913 -0.0103 0.041928656
-0.04527913 -0.0094999997 0.041928656
-0.045238949 -0.0103 0.041969765
-0.045181669 -0.0103 0.042068984
-0.045181669 -0.0094999997 0.042068984
-0.045166153 -0.0103 0.042124335
-0.045160051 -0.0094999997 0.042181496
-0.045163531 -0.0094999997 0.042238876
-0.045163531 -0.0103 0.042238876
-0.045176491 -0.0094999997 0.042294879
-0.045198578 -0.0103 0.042347953
-0.045198578 -0.0094999997 0.042347953
-0.045229174 -0.0103 0.042396616
-0.045267429 -0.0094999997 0.043544434
-0.045229174 -0.0094999997 0.043587342
-0.045198578 -0.0103 0.043636005
-0.045176491 -0.0103 0.04368908
-0.045176491 -0.0094999997 0.04368908
-0.045166153 -0.0103 0.043859623
-0.045166153 -0.0094999997 0.043859623
-0.045181669 -0.0103 0.043914974
-0.045181669 -0.0094999997 0.043914974
-0.045206159 -0.0094999997 0.043966979
-0.045238949 -0.0103 0.044014193
-0.045238949 -0.0094999997 0.044014193
-0.045325581 -0.0094999997 0.044089168
-0.045377012 -0.0103 0.044114843
-0.045546442 -0.0103 0.044136867
0.0036547761 -0.011 0.053967115
0.0036454536 -0.011 0.053764082
0.0034900177 -0.011 0.053150076
0.0034900177 -0.01098 0.053150076
0.0031887237 -0.011 0.05267863
0.0029876493 -0.01098 0.052489705
0.0029876493 -0.011 0.052489705
0.0025238525 -0.011 0.052234665
0.0022448692 -0.011 0.052163169
0.0019420311 -0.01098 0.052138396
0.0019420311 -0.011 0.052138396
0.0015301667 -0.011 0.052186523
0.0015301667 -0.01098 0.052186523
0.0012646802 -0.011 0.052274469
0.0012646802 -0.01098 0.052274469
0.0010171868 -0.011 0.05240621
0.00060905144 -0.011 0.052777823
0.00060905144 -0.01098 0.052777823
0.00044187345 -0.01098 0.053030003
0.00031551346 -0.01098 0.053315587
0.00031551346 -0.011 0.053315587
0.00023600459 -0.011 0.05362862
0.00022050459 -0.011 0.054183822
0.00020867772 -0.01098 0.053960353
0.00028012693 -0.01098 0.05449944
0.00028012693 -0.011 0.05449944
0.00038385205 -0.011 0.054784693
0.0005253423 -0.011 0.055037156
0.00069913827 -0.011 0.055255175
0.00069913827 -0.01098 0.055255175
0.00088580325 -0.01098 0.055425923
0.0013632234 -0.011 0.05568653
0.0011117123 -0.01098 0.055574924
0.0013632234 -0.01098 0.05568653
0.0016424097 -0.01098 0.055757727
0.0023464765 -0.01098 0.05573526
0.0026085954 -0.011 0.055648834
0.0026085954 -0.01098 0.055648834
0.0028527156 -0.011 0.055519473
0.0028527156 -0.01098 0.055519473
0.0030749831 -0.011 0.055348001
0.0030749831 -0.01098 0.055348001
0.0032566115 -0.011 0.055153161
0.0034217983 -0.011 0.054904863
0.003547471 -0.01098 0.054621842
0.0036547761 -0.011 0.053973984
-0.0086634923 -0.01098 0.053973984
-0.0086634923 -0.011 0.053967115
-0.0086746849 -0.011 0.053745013
-0.0086746849 -0.01098 0.053745013
-0.00873309 -0.01098 0.053424485
-0.0088337315 -0.011 0.053139649
-0.0089692818 -0.01098 0.052891057
-0.0091343056 -0.011 0.052678172
-0.009324559 -0.011 0.052500837
-0.0095412508 -0.011 0.052356638
-0.0095412508 -0.01098 0.052356638
-0.01006243 -0.01098 0.052176356
-0.010362498 -0.011 0.052151807
-0.010362498 -0.01098 0.052151807
-0.010489004 -0.011 0.052156039
-0.011288173 -0.01098 0.052413192
-0.011510473 -0.011 0.052581944
-0.011697636 -0.011 0.052780539
-0.011987668 -0.01098 0.053307828
-0.011987668 -0.011 0.053307828
-0.012068128 -0.011 0.053623017
-0.012095852 -0.011 0.053960353
-0.012095852 -0.01098 0.053960353
-0.012022232 -0.01098 0.054511242
-0.011607968 -0.011 0.055254277
-0.011208031 -0.01098 0.055564251
-0.010954751 -0.011 0.055677358
-0.010954751 -0.01098 0.055677358
-0.010669809 -0.01098 0.055750258
-0.010362498 -0.011 0.055775441
-0.01024078 -0.01098 0.05577125
-0.0097053107 -0.01098 0.055643618
-0.0097053107 -0.011 0.055643618
-0.0094627049 -0.011 0.055515066
-0.0087705366 -0.01098 0.054620553
-0.0087705366 -0.011 0.054620553
-0.0086909505 -0.01098 0.054307867
-0.0086634923 -0.011 0.053973984
-0.014935084 -0.011 0.055134106
-0.014935084 -0.01098 0.055140864
-0.014935084 -0.01098 0.055134106
-0.014938325 -0.011 0.055063996
-0.014957748 -0.011 0.054954004
-0.014993981 -0.011 0.054852728
-0.014957748 -0.01098 0.054954004
-0.014993981 -0.01098 0.054852728
-0.01504103 -0.011 0.054768257
-0.015183256 -0.01098 0.054615743
-0.015274273 -0.01098 0.054555722
-0.015274273 -0.011 0.054555722
-0.015747078 -0.011 0.0544517
-0.015836727 -0.011 0.054452557
-0.015931321 -0.01098 0.05445857
-0.015931321 -0.01098 0.055789184
-0.015658321 -0.011 0.055802826
-0.015658321 -0.01098 0.055802826
-0.015379818 -0.011 0.055763938
-0.015277402 -0.01098 0.055724174
-0.015191797 -0.011 0.055674735
-0.015191797 -0.01098 0.055674735
-0.015056738 -0.01098 0.05554517
-0.015005641 -0.01098 0.055462431
-0.015005641 -0.011 0.055462431
-0.014969449 -0.011 0.055374045
-0.014944726 -0.01098 0.055269174
-0.014944726 -0.011 0.055269174
-0.014757709 -0.01098 0.052916273
-0.014757709 -0.01098 0.052909404
-0.01475784 -0.011 0.052894745
-0.01475784 -0.01098 0.052894745
-0.014769124 -0.011 0.052776475
-0.014769124 -0.01098 0.052776475
-0.014799385 -0.01098 0.052662838
-0.014799385 -0.011 0.052662838
-0.014842232 -0.011 0.052568205
-0.014900065 -0.011 0.052480318
-0.014978232 -0.011 0.052395031
-0.014900065 -0.01098 0.052480318
-0.014978232 -0.01098 0.052395031
-0.015069406 -0.011 0.052322794
-0.015180605 -0.011 0.052261021
-0.015292968 -0.01098 0.052215572
-0.015462087 -0.01098 0.052175086
-0.015462087 -0.011 0.052175086
-0.015658321 -0.01098 0.052158784
-0.015787128 -0.011 0.05216049
-0.015787128 -0.01098 0.05216049
-0.015910987 -0.01098 0.052172415
-0.015918748 -0.01098 0.052175555
-0.015924674 -0.011 0.052179646
-0.015922485 -0.01098 0.052177802
-0.015924674 -0.01098 0.052179646
-0.015926501 -0.011 0.052181773
-0.015926501 -0.01098 0.052181773
-0.015927885 -0.011 0.05218406
-0.015929235 -0.011 0.052187465
-0.015930336 -0.011 0.052192491
-0.015931092 -0.011 0.052201107
-0.015931321 -0.011 0.05222024
-0.015931321 -0.01098 0.05222024
-0.01547157 -0.011 0.053628556
-0.01547157 -0.01098 0.053628556
-0.015262767 -0.01098 0.053584997
-0.015262767 -0.011 0.053584997
-0.015054897 -0.01098 0.053479828
-0.014966317 -0.01098 0.053407367
-0.014890643 -0.011 0.053322531
-0.014834813 -0.01098 0.053235028
-0.014834813 -0.011 0.053235028
-0.01479319 -0.01098 0.053138535
-0.01479319 -0.011 0.053138535
-0.01476643 -0.011 0.053029425
-0.018743487 -0.011 0.053967115
-0.01875468 -0.011 0.053745013
-0.01875468 -0.01098 0.053745013
-0.018813085 -0.011 0.053424485
-0.018913727 -0.01098 0.053139649
-0.019049276 -0.01098 0.052891057
-0.019049276 -0.011 0.052891057
-0.0192143 -0.01098 0.052678172
-0.019404553 -0.01098 0.052500837
-0.019621246 -0.01098 0.052356638
-0.019865565 -0.011 0.052247301
-0.019865565 -0.01098 0.052247301
-0.020442493 -0.011 0.052151807
-0.020142425 -0.01098 0.052176356
-0.020442493 -0.01098 0.052151807
-0.020856254 -0.011 0.052198913
-0.020569075 -0.01098 0.052156046
-0.021122649 -0.011 0.052285206
-0.021122649 -0.01098 0.052285206
-0.02194188 -0.011 0.053026073
-0.022067618 -0.011 0.053307798
-0.02194188 -0.01098 0.053026073
-0.022067618 -0.01098 0.053307798
-0.02214808 -0.011 0.053623002
-0.022175806 -0.011 0.053960353
-0.022162726 -0.011 0.054197494
-0.022175806 -0.01098 0.053960353
-0.022102188 -0.01098 0.054511249
-0.021999057 -0.011 0.054792389
-0.021999057 -0.01098 0.054792389
-0.021687942 -0.01098 0.055254277
-0.021512717 -0.01098 0.055414844
-0.0207498 -0.01098 0.055750258
-0.020442493 -0.011 0.055775441
-0.020320535 -0.01098 0.055771235
-0.020044915 -0.011 0.055729192
-0.020044915 -0.01098 0.055729192
-0.019785078 -0.011 0.055643544
-0.019785078 -0.01098 0.055643544
-0.019542508 -0.011 0.05551498
-0.019542508 -0.01098 0.05551498
-0.019321343 -0.011 0.055344321
-0.019140199 -0.01098 0.055149928
-0.019140199 -0.011 0.055149928
-0.01877095 -0.011 0.054307923
-0.01885055 -0.01098 0.054620653
-0.01877095 -0.01098 0.054307923
-0.018743487 -0.011 0.053973984
-0.026099894 -0.011 0.054158229
-0.026099894 -0.01098 0.054158229
-0.026099894 -0.01098 0.055782314
-0.026006103 -0.01098 0.054152217
-0.025430497 -0.01098 0.054261759
-0.025430497 -0.011 0.054261759
-0.025563249 -0.01098 0.054206565
-0.025729086 -0.01098 0.054165743
-0.025902007 -0.011 0.05415136
-0.025902007 -0.01098 0.05415136
-0.024994414 -0.011 0.055011153
-0.025015369 -0.011 0.054804992
-0.025015369 -0.01098 0.054804992
-0.025056291 -0.011 0.05466906
-0.025056291 -0.01098 0.05466906
-0.025117213 -0.011 0.054547161
-0.025194405 -0.011 0.054442573
-0.025194405 -0.01098 0.054442573
-0.025289096 -0.011 0.054352086
-0.024994414 -0.01098 0.055018023
-0.02571601 -0.01098 0.055791233
-0.025435774 -0.011 0.055726748
-0.025435774 -0.01098 0.055726748
-0.025330748 -0.01098 0.055674728
-0.025241539 -0.011 0.055611316
-0.025211373 -0.011 0.055584326
-0.025241539 -0.01098 0.055611316
-0.025211373 -0.01098 0.055584326
-0.025139365 -0.01098 0.05550319
-0.025139365 -0.011 0.05550319
-0.025035731 -0.011 0.055300001
-0.025035731 -0.01098 0.055300001
-0.024994414 -0.011 0.055018023
-0.04597161 -0.0099546677 0.004904482
-0.046493124 -0.0098199546 0.004904482
-0.046984658 -0.0095996773 0.004904482
-0.048393205 -0.0080199651 0.004904482
-0.048555918 -0.0075064935 0.0045919749
-0.049394913 -3.6054487e-15 0.0045919749
0.018394692 0.0037766171 0.0045919749
0.017766101 0.0075064935 0.004904482
0.018605093 1.9923645e-14 0.0045919749
0.017603388 -0.0080199651 0.004904482
0.01735686 -0.0084988717 0.004904482
0.017033497 -0.0089296438 0.0045919749
0.016194841 -0.0095996773 0.004904482
0.016194841 -0.0095996773 0.0045919749
0.014645064 -0.0099999998 0.0045919749
0.014645064 -0.0099999998 0.004904482
0.012263725 -0.0099999998 0.0045919749
0.011636481 -0.010049486 0.004904482
0.011636481 -0.010049486 0.0045919749
0.010443689 -0.010438052 0.0045919749
0.010443689 -0.010438052 0.004904482
0.0094299149 -0.011176965 0.0045919749
0.0086948685 -0.012193548 0.004904482
0.0078373086 -0.013888481 0.004904482
0.0076635722 -0.01455005 0.004904482
0.0076050907 -0.015231546 0.004904482
0.0076050907 -0.023592371 0.004904482
0.0068565831 -0.025649114 0.0045919749
0.0064622331 -0.026043527 0.0045919749
0.0068565831 -0.025649114 0.004904482
0.0064622331 -0.026043527 0.004904482
0.0029890034 -0.028601255 0.0045919749
-0.0047844397 -0.032301981 0.0045919749
-0.0089595411 -0.033385415 0.004904482
-0.013238216 -0.033931531 0.0045919749
-0.017551603 -0.033931531 0.0045919749
-0.021830278 -0.033385415 0.004904482
-0.02600538 -0.032301981 0.0045919749
-0.030009709 -0.030698659 0.0045919749
-0.037252054 -0.026043527 0.0045919749
-0.037646402 -0.025649114 0.0045919749
-0.038346305 -0.024147989 0.004904482
-0.038394909 -0.023592371 0.004904482
-0.038394909 -0.015231546 0.0045919749
-0.038394909 -0.015231546 0.004904482
-0.038453393 -0.01455005 0.0045919749
-0.038453393 -0.01455005 0.004904482
-0.038911037 -0.013266185 0.0045919749
-0.039484687 -0.012193548 0.004904482
-0.039484687 -0.012193548 0.0045919749
-0.03981211 -0.011656262 0.0045919749
-0.03981211 -0.011656262 0.004904482
-0.04123351 -0.010438052 0.004904482
-0.043053545 -0.0099999998 0.0045919749
-0.045434885 -0.0099999998 0.004904482
-0.047303073 0.0098485108 0.0404213
-0.04713212 0.0081000002 0.046784382
-0.04978992 0.0081000002 0.045449063
-0.049913399 0.0082632871 0.045199189
-0.045276176 0.010032359 0.041261807
-0.045226637 0.0103 0.044001617
-0.048538245 0.0103 0.041947726
-0.045786459 0.010125582 0.041050207
-0.046854675 0.0103 0.041042395
-0.046895802 0.0103 0.041041978
-0.047820829 0.0103 0.041275829
-0.047649093 0.01014272 0.040914606
-0.047253333 0.0103 0.041078832
-0.048081383 0.0103 0.041444469
-0.049068138 0.010123567 0.042453747
-0.048811287 0.010123567 0.041834343
-0.048584104 0.0103 0.042017754
-0.048844099 0.0103 0.04293577
-0.049264587 0.010030693 0.043088116
-0.048803337 0.0103 0.042591464
-0.048811339 0.0103 0.043352239
-0.048824355 0.0103 0.043270625
-0.049002476 0.0098485108 0.044519439
-0.047918178 0.0103 0.044651922
-0.048513643 0.010032359 0.044722151
-0.048165053 0.0103 0.044471584
-0.047541127 0.0103 0.04483179
-0.047641858 0.0103 0.044793248
-0.048003361 0.010125582 0.044933751
-0.047485866 0.010125582 0.045148347
-0.046935149 0.0103 0.044941563
-0.046894014 0.0103 0.04494198
-0.046536483 0.0103 0.044905126
-0.046975583 0.010032359 0.045359947
-0.045288656 0.010030693 0.044736844
-0.045251574 0.0103 0.044036232
-0.045624696 0.0103 0.044471528
-0.044978533 0.010123567 0.044149615
-0.04496149 0.0103 0.042738218
-0.044945717 0.0103 0.043048184
-0.044721678 0.010123567 0.043530211
-0.044986486 0.0103 0.043392494
-0.044965461 0.0103 0.042713333
-0.044525236 0.010030693 0.042895842
-0.045058407 0.0103 0.042336427
-0.045624766 0.0103 0.041512374
-0.048711278 0.0081000002 0.046329767
-0.048961386 0.0084987823 0.045985267
-0.048781276 0.0081000002 0.046290711
-0.049273677 0.0081000002 0.04595533
-0.049660742 0.0085659279 0.045303959
-0.049422145 0.0081000002 0.045815326
-0.050120473 0.0081000002 0.045000896
-0.050349779 0.0081506167 0.044530787
-0.050369099 0.0081000002 0.044520237
-0.050687999 0.0081000002 0.043221068
-0.050428607 0.0081000002 0.04438946
-0.050525397 0.0084936796 0.043251131
-0.050691985 0.0081000002 0.043141011
-0.050689906 0.0081000002 0.043182828
-0.050300159 0.0086477939 0.041942861
-0.050661162 0.0081000002 0.042508457
-0.05030816 0.0081000002 0.04132174
-0.050550006 0.0081000002 0.041952621
-0.049698934 0.0085959425 0.040750425
-0.0500433 0.0086477939 0.041323453
-0.049562894 0.0081000002 0.040286086
-0.049434558 0.0081000002 0.04017828
-0.049276628 0.0084936796 0.040239707
-0.048246972 0.0081506167 0.039459843
-0.048263341 0.0081000002 0.039459709
-0.048516832 0.0081000002 0.039555505
-0.047561243 0.0081000002 0.039262682
-0.046759658 0.0081000002 0.039199706
-0.046718031 0.0081535699 0.039215118
-0.046657704 0.0081000002 0.039199576
-0.04576958 0.0081000002 0.039374772
-0.046490736 0.008348004 0.039309371
-0.045078546 0.0081000002 0.039654192
-0.045102082 0.008601699 0.039885215
-0.045677423 0.0086538848 0.039646633
-0.04554636 0.0081000002 0.039447121
-0.045008544 0.0081000002 0.039693248
-0.04491134 0.0081000002 0.039759453
-0.044076107 0.0081000002 0.040443577
-0.044516139 0.0081000002 0.040028628
-0.043783471 0.0081000002 0.040828332
-0.043999903 0.0081000002 0.040534895
-0.043876424 0.0082632871 0.040784769
-0.04344004 0.0081506167 0.041453172
-0.043391474 0.0081000002 0.041520271
-0.043327462 0.0085959425 0.043392532
-0.043099917 0.0081000002 0.042801131
-0.043489665 0.0086477939 0.044041097
-0.043239813 0.0081000002 0.044031337
-0.044090882 0.0085959425 0.045233533
-0.044513196 0.0084936796 0.045744251
-0.044226922 0.0081000002 0.045697872
-0.044690032 0.0081000002 0.046086896
-0.045654148 0.0081000002 0.046572495
-0.045542844 0.0081506167 0.046524111
-0.045001708 0.0083438503 0.046178468
-0.046578981 0.0081000002 0.046773449
-0.046501908 0.0081000002 0.046771601
-0.046324175 0.0082632871 0.046687558
-0.046228576 0.0081000002 0.046721276
-0.045915987 0.0081000002 0.046663724
-0.045786668 0.0085645104 0.046423003
-0.045838758 0.0081000002 0.046642259
-0.047030158 0.0081000002 0.046784252
-0.048112392 0.0086538848 0.046337321
-0.047826745 0.008601699 0.046455778
-0.047553092 0.0084987823 0.046569251
-0.048687741 0.008601699 0.046098743
-0.04845117 0.0081000002 0.046454046
-0.049034692 0.0090149567 0.045563567
-0.048678748 0.009148824 0.045711171
-0.048307188 0.0092167044 0.045865245
-0.048402086 0.0086538848 0.046217196
-0.047930382 0.0092167044 0.046021502
-0.047202878 0.0090149567 0.046323176
-0.048620172 0.0096301707 0.045248013
-0.047719583 0.0097118579 0.04562147
-0.04684411 0.0094690742 0.04598451
-0.047558822 0.009148824 0.046175577
-0.04817304 0.0097118579 0.045433432
-0.047272451 0.0096301707 0.045806885
-0.047480799 0.0081000002 0.046734706
-0.046872482 0.008818835 0.046460189
-0.046446498 0.0092330603 0.046149388
-0.046486743 0.0098485108 0.045562658
-0.04614073 0.01014272 0.045069352
-0.049215399 0.008348004 0.045879934
-0.049365096 0.008818835 0.045426559
-0.049048513 0.0094690742 0.045070391
-0.049446121 0.0092330603 0.04490551
-0.049456239 0.0095791649 0.044331275
-0.048897862 0.01014272 0.04392603
-0.048781715 0.0103 0.043461692
-0.044818152 0.0090113506 0.045617793
-0.044078939 0.0092120841 0.044522658
-0.043746516 0.0086477939 0.044660505
-0.043650642 0.0091445474 0.043258514
-0.043264426 0.0084936796 0.042732827
-0.045279965 0.0088161966 0.04606308
-0.045626946 0.0092318319 0.045919195
-0.045198433 0.0094668679 0.045460101
-0.044414066 0.0091445474 0.045099515
-0.044493463 0.0097086243 0.044350762
-0.043822084 0.0092120841 0.04390325
-0.043569382 0.0090113506 0.042606369
-0.047071785 0.0081535699 0.04676884
-0.04729908 0.008348004 0.046674587
-0.046576828 0.0085659279 0.046582788
-0.046090711 0.0089287097 0.046296924
-0.04603298 0.0095791649 0.045750823
-0.044817068 0.0096272854 0.044932399
-0.045643426 0.0098475292 0.045275573
-0.044236608 0.0097086243 0.043731358
-0.044053644 0.0096272854 0.043091398
-0.043949664 0.0094668679 0.042448677
-0.044891961 0.01014272 0.042057928
-0.044394657 0.0098475292 0.042264149
-0.043302301 0.0083438503 0.042080328
-0.043186214 0.0081000002 0.042163983
-0.048059598 0.0103 0.041430373
-0.047200575 0.0103 0.041066084
-0.047756836 0.0095791649 0.040233135
-0.046945713 0.0094690742 0.039999448
-0.046517368 0.0096301707 0.040177073
-0.046814233 0.010032359 0.040624011
-0.046303958 0.010125582 0.040835612
-0.045616779 0.0097118579 0.040550526
-0.04478734 0.0098485108 0.041464519
-0.044343695 0.0092330603 0.041078448
-0.044333577 0.0095791649 0.041652683
-0.043927543 0.0092318319 0.041821055
-0.043580562 0.0088161966 0.041964941
-0.050487518 0.0083438503 0.043903627
-0.050462358 0.0085959425 0.042591427
-0.049967736 0.0092120841 0.042080708
-0.049710885 0.0092120841 0.0414613
-0.048971668 0.0090113506 0.040366165
-0.048788115 0.0083438503 0.039805487
-0.048003152 0.0085645104 0.039560951
-0.046070233 0.0097118579 0.040362488
-0.045111071 0.009148824 0.040272787
-0.045169644 0.0096301707 0.040735945
-0.044755131 0.0090149567 0.040420391
-0.044741303 0.0094690742 0.040913567
-0.044129074 0.0085659279 0.040679999
-0.043987907 0.0089287097 0.041225985
-0.043683864 0.0085645104 0.041352063
-0.04366935 0.0081000002 0.040983062
-0.049801908 0.0089287097 0.044757973
-0.050105959 0.0085645104 0.044631895
-0.050209261 0.0088161966 0.044019017
-0.04984016 0.0094668679 0.043535281
-0.050220437 0.0090113506 0.043377589
-0.050139174 0.0091445474 0.042725444
-0.049736172 0.0096272854 0.04289256
-0.049553208 0.0097086243 0.0422526
-0.049296357 0.0097086243 0.041633196
-0.048972748 0.0096272854 0.041051559
-0.04937575 0.0091445474 0.040884443
-0.047699109 0.0089287097 0.039687034
-0.048509851 0.0088161966 0.039920878
-0.047212988 0.0085659279 0.03940117
-0.047465645 0.0082632871 0.0392964
-0.046917342 0.008818835 0.039523769
-0.046236724 0.0084987823 0.039414708
-0.046586938 0.0090149567 0.039660778
-0.046230994 0.009148824 0.039808381
-0.045963079 0.008601699 0.03952818
-0.045387734 0.0086538848 0.039766762
-0.045859437 0.0092167044 0.039962456
-0.045482628 0.0092167044 0.040118713
-0.044828434 0.0084987823 0.039998692
-0.044574417 0.008348004 0.040104024
-0.044424728 0.008818835 0.040557399
-0.044347122 0.0081535699 0.040198281
-0.049442694 0.0081535699 0.045785677
-0.049862273 0.0092318319 0.044162903
-0.049395159 0.0098475292 0.04371981
-0.048501164 0.010030693 0.041247115
-0.048146397 0.0098475292 0.040708385
-0.04859139 0.0094668679 0.040523857
-0.04816287 0.0092318319 0.040064763
-0.047343321 0.0092330603 0.03983457
-0.046603277 0.0081000002 0.039203186
-0.045144908 0.016000001 0.0045919749
-0.044979066 0.015059445 0.0045919749
-0.044776477 0.014625 0.0045919749
-0.044501532 0.014232334 0.033591978
-0.044501532 0.014232334 0.0045919749
-0.043769911 0.01361843 0.033591978
-0.043335464 0.013415845 0.0045919749
-0.042872444 0.013291779 0.033591978
-0.04239491 0.01325 0.033591978
-0.04239491 0.01325 0.0045919749
-0.041454352 0.013415845 0.033591978
-0.040627241 0.013893378 0.033591978
-0.040627241 0.013893378 0.0045919749
-0.040288284 0.014232334 0.0045919749
-0.040288284 0.014232334 0.033591978
-0.040013339 0.014625 0.0045919749
-0.040013339 0.014625 0.033591978
-0.039644912 0.016000001 0.033591978
-0.039686687 0.016477533 0.033591978
-0.040013339 0.017375 0.033591978
-0.039810754 0.016940555 0.0045919749
-0.040013339 0.017375 0.0045919749
-0.040288284 0.017767666 0.033591978
-0.040627241 0.018106623 0.0045919749
-0.041454352 0.018584155 0.0045919749
-0.041454352 0.018584155 0.033591978
-0.041917376 0.018708222 0.033591978
-0.04239491 0.018750001 0.033591978
-0.043335464 0.018584155 0.033591978
-0.043335464 0.018584155 0.0045919749
-0.044776477 0.017375 0.0045919749
-0.044979066 0.016940555 0.033591978
-0.045103133 0.016477533 0.033591978
0.0088550914 0.016000001 0.033591978
0.0088968687 0.015522468 0.033591978
0.0090209357 0.015059445 0.033591978
0.0092235208 0.014625 0.033591978
0.0094984677 0.014232334 0.033591978
0.01023009 0.01361843 0.0045919749
0.010664536 0.013415845 0.0045919749
0.011605091 0.01325 0.0045919749
0.01298009 0.01361843 0.033591978
0.013711713 0.014232334 0.0045919749
0.01398666 0.014625 0.033591978
0.014189245 0.015059445 0.033591978
0.014189245 0.015059445 0.0045919749
0.014313312 0.015522468 0.0045919749
0.014313312 0.015522468 0.033591978
0.014355091 0.016000001 0.033591978
0.014313312 0.016477533 0.033591978
0.013711713 0.017767666 0.0045919749
0.013372757 0.018106623 0.033591978
0.01298009 0.01838157 0.033591978
0.012545645 0.018584155 0.0045919749
0.012082623 0.018708222 0.0045919749
0.011605091 0.018750001 0.033591978
0.010664536 0.018584155 0.033591978
0.01023009 0.01838157 0.0045919749
0.0098374244 0.018106623 0.0045919749
0.0094984677 0.017767666 0.033591978
0.0090209357 0.016940555 0.033591978
0.015243163 0.0095791649 0.040233135
0.014853606 0.0098475292 0.040708385
0.015813461 0.0081000002 0.046780773
0.015867883 0.0081000002 0.046784382
0.015928214 0.0081535699 0.04676884
0.017345851 0.0081000002 0.046572495
0.01571209 0.0081000002 0.039212357
0.018021466 0.010123567 0.044149615
0.014268586 0.0103 0.043647531
0.01410214 0.01014272 0.04392603
0.016455619 0.0103 0.041073743
0.016185762 0.010032359 0.040624011
0.015696926 0.0098485108 0.0404213
0.015179172 0.0103 0.041275829
0.014188714 0.010123567 0.041834343
0.014461756 0.0103 0.041947726
0.014619114 0.0103 0.041729294
0.014196666 0.0103 0.042591464
0.014436819 0.0103 0.041982342
0.013735415 0.010030693 0.043088116
0.014188642 0.0103 0.042631805
0.014171673 0.0103 0.04324574
0.01441679 0.0103 0.043967754
0.014396582 0.0103 0.043931928
0.014590051 0.0103 0.044219643
0.013997521 0.0098485108 0.044519439
0.014611047 0.0103 0.044241704
0.014804021 0.0103 0.044444464
0.01499664 0.010125582 0.044933751
0.014486358 0.010032359 0.044722151
0.015081819 0.0103 0.044651922
0.016024416 0.010032359 0.045359947
0.017031008 0.0103 0.044708129
0.016751396 0.0103 0.04483176
0.016859272 0.01014272 0.045069352
0.017356576 0.0098475292 0.045275573
0.017291563 0.0103 0.044539489
0.017711343 0.010030693 0.044736844
0.018006178 0.0103 0.043417405
0.018278321 0.010123567 0.043530211
0.018054282 0.0103 0.043048184
0.018021541 0.0103 0.043352153
0.018021522 0.0103 0.042631719
0.017941596 0.0103 0.042336427
0.018108042 0.01014272 0.042057928
0.017375233 0.0103 0.041512374
0.01740616 0.0103 0.041539494
0.014288725 0.0081000002 0.046329767
0.014218725 0.0081000002 0.046290711
0.014038615 0.0084987823 0.045985267
0.013871929 0.0081000002 0.046054505
0.014121521 0.0081000002 0.046224505
0.013339257 0.0085659279 0.045303959
0.013233164 0.0081000002 0.045480359
0.012993652 0.0081000002 0.045155626
0.012571391 0.0081000002 0.04438946
0.012650222 0.0081506167 0.044530787
0.012601653 0.0081000002 0.044463687
0.012630902 0.0081000002 0.044520237
0.012474606 0.0084936796 0.043251131
0.012512483 0.0083438503 0.043903627
0.012537643 0.0085959425 0.042591427
0.012331387 0.0081000002 0.042545699
0.012308015 0.0081000002 0.043141011
0.012310097 0.0081000002 0.043182828
0.012691837 0.0081000002 0.04132174
0.013437105 0.0081000002 0.040286086
0.013723375 0.0084936796 0.040239707
0.014864329 0.0081000002 0.039411463
0.01411074 0.0081000002 0.039768469
0.013965985 0.0081000002 0.039851245
0.015126169 0.0081000002 0.039320234
0.016240342 0.0081000002 0.039199706
0.017036924 0.008601699 0.03952818
0.016690983 0.0081000002 0.039249253
0.016509263 0.008348004 0.039309371
0.017867422 0.0081000002 0.039628375
0.017897921 0.008601699 0.039885215
0.01766135 0.0081000002 0.039529912
0.017322576 0.0086538848 0.039646633
0.017991455 0.0081000002 0.039693248
0.018088659 0.0081000002 0.039759453
0.018171566 0.0084987823 0.039998692
0.018425582 0.008348004 0.040104024
0.018632328 0.0081000002 0.040168632
0.01848386 0.0081000002 0.040028628
0.019216528 0.0081000002 0.040828332
0.0190001 0.0081000002 0.040534895
0.018870926 0.0085659279 0.040679999
0.019608529 0.0081000002 0.041520271
0.019898178 0.0081000002 0.04276289
0.019900085 0.0081000002 0.042801131
0.019672537 0.0085959425 0.043392532
0.019878795 0.0081000002 0.04343826
0.01973745 0.0081000002 0.044108205
0.019106133 0.0081000002 0.045313489
0.018773077 0.0081000002 0.045697872
0.018909117 0.0085959425 0.045233533
0.018644737 0.0081000002 0.045805678
0.018309968 0.0081000002 0.046086896
0.017473524 0.0081000002 0.046524249
0.017457156 0.0081506167 0.046524111
0.017727012 0.0081000002 0.046428453
0.01809944 0.0081000002 0.04621549
0.018244198 0.0081000002 0.046132714
0.016771423 0.0081000002 0.046721276
0.017084012 0.0081000002 0.046663724
0.017161241 0.0081000002 0.046642259
0.015969837 0.0081000002 0.046784252
0.015893443 0.0081000002 0.046786081
0.015173258 0.008601699 0.046455778
0.014312262 0.008601699 0.046098743
0.014597915 0.0086538848 0.046217196
0.014649505 0.0081000002 0.046502147
0.014756544 0.0081000002 0.046536837
0.014692809 0.0092167044 0.045865245
0.014887605 0.0086538848 0.046337321
0.015441177 0.009148824 0.046175577
0.014379827 0.0096301707 0.045248013
0.014321253 0.009148824 0.045711171
0.015069619 0.0092167044 0.046021502
0.015280416 0.0097118579 0.04562147
0.01579712 0.0090149567 0.046323176
0.013951484 0.0094690742 0.045070391
0.014826961 0.0097118579 0.045433432
0.015514137 0.010125582 0.045148347
0.01572755 0.0096301707 0.045806885
0.016513256 0.0098485108 0.045562658
0.015519198 0.0081000002 0.046734706
0.015446905 0.0084987823 0.046569251
0.016553501 0.0092330603 0.046149388
0.016155893 0.0094690742 0.04598451
0.013965311 0.0090149567 0.045563567
0.0137846 0.008348004 0.045879934
0.013634907 0.008818835 0.045426559
0.013553875 0.0092330603 0.04490551
0.013604838 0.0098475292 0.04371981
0.017998295 0.0083438503 0.046178468
0.018486807 0.0084936796 0.045744251
0.018585933 0.0091445474 0.045099515
0.019253483 0.0086477939 0.044660505
0.019510338 0.0086477939 0.044041097
0.019735577 0.0084936796 0.042732827
0.016421018 0.0081000002 0.046773449
0.016675824 0.0082632871 0.046687558
0.017213332 0.0085645104 0.046423003
0.017720034 0.0088161966 0.04606308
0.017373053 0.0092318319 0.045919195
0.018181847 0.0090113506 0.045617793
0.01780157 0.0094668679 0.045460101
0.018182931 0.0096272854 0.044932399
0.018921064 0.0092120841 0.044522658
0.019177916 0.0092120841 0.04390325
0.018763391 0.0097086243 0.043731358
0.018946351 0.0096272854 0.043091398
0.019349357 0.0091445474 0.043258514
0.015700918 0.008348004 0.046674587
0.016423171 0.0085659279 0.046582788
0.016909288 0.0089287097 0.046296924
0.016127521 0.008818835 0.046460189
