# .PCD v0.7 - Point Cloud Data file format
VERSION 0.7
FIELDS x y z
SIZE 4 4 4
TYPE F F F
COUNT 1 1 1
WIDTH 1022
HEIGHT 1
VIEWPOINT 0 0 0 1 0 0 0
POINTS 1022
DATA ascii
0.0570303106269 -0.0103294952416 0.062435389
0.0558299326269 -0.00926900924164 0.062435389
0.0570303106269 -0.0104916382416 0.067002103
0.0561669666269 -0.00926900924164 0.071568817
0.0570303106269 -0.00995282354164 0.071568817
0.0570303106269 -0.00944439594164 0.076135531
0.0568780056269 -0.00926900924164 0.076135531
0.0570303106269 -0.00926900924164 0.077912562
0.0615637206269 -0.00926900924164 0.050500207
0.0615637206269 -0.0129098252416 0.053301953
0.0615637206269 -0.0132830432416 0.057868674
0.0615637206269 -0.0120407442416 0.062435389
0.0615637206269 -0.0119747212416 0.067002103
0.0615637206269 -0.0119409512416 0.071568817
0.0615637206269 -0.0117541872416 0.076135531
0.0574429536269 -0.00926900924164 0.080702245
0.0615637206269 -0.0118491562416 0.080702245
0.0615637206269 -0.0116555942416 0.085268967
0.0581234296269 -0.00926900924164 0.085268967
0.0615637206269 -0.0111028692416 0.089835681
0.0590797416269 -0.00926900924164 0.089835681
0.0615637206269 -0.0110730632416 0.094402395
0.0593594516269 -0.00926900924164 0.094402395
0.0615637206269 -0.0109934942416 0.098969117
0.0596089856269 -0.00926900924164 0.098969117
0.0615637206269 -0.00926900924164 0.10089232
0.0615637206269 -0.00926900924164 0.10726817
0.0615637206269 -0.00974988834164 0.10810255
0.0607170666269 -0.00926900924164 0.10810255
0.0615637206269 -0.00926900924164 0.10859445
0.0660971456269 -0.00926900924164 0.052560255
0.0660971456269 -0.0101061152416 0.053301953
0.0660971456269 -0.0109888752416 0.057868674
0.0660971456269 -0.0111720552416 0.062435389
0.0660971456269 -0.0113361542416 0.067002103
0.0660971456269 -0.0115104162416 0.071568817
0.0660971456269 -0.0116245732416 0.076135531
0.0660971456269 -0.0116613352416 0.080702245
0.0660971456269 -0.0114715012416 0.085268967
0.0660971456269 -0.0110455742416 0.089835681
0.0660971456269 -0.0110736512416 0.094402395
0.0660971456269 -0.0110366262416 0.098969117
0.0660971456269 -0.00926900924164 0.10105023
0.0660971456269 -0.00926900924164 0.10667031
0.0660971456269 -0.0102608152416 0.10810255
0.0660971456269 -0.00926900924164 0.10896228
0.0667525576269 -0.00926900924164 0.053301953
0.0675350926269 -0.00926900924164 0.057868674
0.0677745986269 -0.00926900924164 0.062435389
0.0680100076269 -0.00926900924164 0.067002103
0.0682521806269 -0.00926900924164 0.071568817
0.0684628836269 -0.00926900924164 0.076135531
0.0686247246269 -0.00926900924164 0.080702245
0.0685805726269 -0.00926900924164 0.085268967
0.0683263586269 -0.00926900924164 0.089835681
0.0686652706269 -0.00926900924164 0.094402395
0.0691601836269 -0.00926900924164 0.098969117
0.0671056406269 -0.00926900924164 0.10810255
-0.0653720443731 -0.00593373454164 0.053301953
-0.0653720443731 -0.00464936984164 0.05518166
-0.0663273583731 -0.00464936984164 0.057868674
-0.0653720443731 -0.00507085664164 0.062435389
-0.0653720443731 -0.00464936984164 0.061575539
-0.0653720443731 -0.00509283214164 0.067002103
-0.0653720443731 -0.00592103494164 0.071568817
-0.0653720443731 -0.00464936984164 0.07272353
-0.0686122653731 -0.00464936984164 0.076135531
-0.0673226883731 -0.00464936984164 0.080702245
-0.0653720443731 -0.00720478864164 0.085268967
-0.0653720443731 -0.00464936984164 0.08245907
-0.0653720443731 -0.00747715204164 0.089835681
-0.0653720443731 -0.00662017514164 0.094402395
-0.0654444193731 -0.00464936984164 0.098969117
-0.0653720443731 -0.00464936984164 0.098722994
-0.0653720443731 -0.00478418814164 0.098969117
-0.0653720443731 -0.00499763614164 0.10353583
-0.0657503403731 -0.00464936984164 0.10353583
-0.0653720443731 -0.00464936984164 0.1040681
-0.0608386193731 -0.00742263994164 0.048735239
-0.0608386193731 -0.00464936984164 0.050638825
-0.0641032333731 -0.00464936984164 0.053301953
-0.0608386193731 -0.00464936984164 0.056687638
-0.0625871593731 -0.00464936984164 0.057868674
-0.0608386193731 -0.00546386734164 0.057868674
-0.0608386193731 -0.00486085084164 0.062435389
-0.0608386193731 -0.00491678614164 0.067002103
-0.0608386193731 -0.00542177534164 0.071568817
-0.0608386193731 -0.00464936984164 0.072216712
-0.0608386193731 -0.00753134384164 0.085268967
-0.0608386193731 -0.00464936984164 0.082347944
-0.0608386193731 -0.00787474114164 0.089835681
-0.0608386193731 -0.00755010074164 0.094402395
-0.0608386193731 -0.00464936984164 0.097337186
-0.0608386193731 -0.00608320054164 0.098969117
-0.0608386193731 -0.00659488414164 0.10353583
-0.0615114073731 -0.00464936984164 0.10810255
-0.0608386193731 -0.00514855874164 0.10810255
-0.0608386193731 -0.00464936984164 0.10856952
-0.0576595983731 -0.00464936984164 0.053301953
-0.0563052023731 -0.00704216484164 0.053301953
-0.0563052023731 -0.00740552214164 0.057868674
-0.0563052023731 -0.00533098254164 0.062435389
-0.0570556623731 -0.00464936984164 0.076135531
-0.0586203133731 -0.00464936984164 0.080702245
-0.0563052023731 -0.00629220424164 0.098969117
-0.0563052023731 -0.00464936984164 0.097635955
-0.0563052023731 -0.00715879994164 0.10353583
-0.0563052023731 -0.00681619984164 0.10810255
-0.0563052023731 -0.00464936984164 0.11052996
-0.0524037953731 -0.00464936984164 0.098969117
-0.0517717843731 -0.00464936984164 0.099342093
-0.0517717843731 -0.00747166844164 0.10353583
-0.0545623253731 -0.00464936984164 0.11266926
-0.0517717843731 -0.00492949304164 0.11723597
-0.0519929923731 -0.00464936984164 0.11723597
-0.0517717843731 -0.00484511894164 0.12180269
-0.0519805423731 -0.00464936984164 0.12180269
-0.0517717843731 -0.00485493144164 0.1263694
-0.0519802523731 -0.00464936984164 0.1263694
-0.0517717843731 -0.00551026214164 0.13093612
-0.0526020323731 -0.00464936984164 0.13093612
-0.0517717843731 -0.00485711444164 0.13550283
-0.0519818613731 -0.00464936984164 0.13550283
-0.0517717843731 -0.00483966884164 0.14006954
-0.0519747753731 -0.00464936984164 0.14006954
-0.0517717843731 -0.00464936984164 0.14036672
-0.0472383593731 -0.00464936984164 0.10177962
-0.0472383593731 -0.00607830554164 0.10810255
-0.0472383593731 -0.00464936984164 0.11376332
-0.0514135903731 -0.00464936984164 0.11723597
-0.0515537583731 -0.00464936984164 0.12180269
-0.0513115323731 -0.00464936984164 0.1263694
-0.0472383593731 -0.00464936984164 0.12923534
-0.0472383593731 -0.00612455504164 0.13093612
-0.0472383593731 -0.00464936984164 0.13225944
-0.0514424993731 -0.00464936984164 0.13550283
-0.0514419553731 -0.00464936984164 0.14006954
-0.0472383593731 -0.00523209094164 0.14463627
-0.0477094753731 -0.00464936984164 0.14463627
-0.0472383593731 -0.00464936984164 0.14410827
-0.0472383593731 -0.00464936984164 0.14527167
-0.0427049423731 -0.00740212844164 0.098969117
-0.0427049423731 -0.00464936984164 0.10291493
-0.0427049423731 -0.00722612334164 0.11723597
-0.0427049423731 -0.00464936984164 0.11441298
-0.0427049423731 -0.00717307524164 0.12180269
-0.0427049423731 -0.00464936984164 0.12413301
-0.0450416643731 -0.00464936984164 0.1263694
-0.0456391223731 -0.00464936984164 0.13093612
-0.0427049423731 -0.00715255634164 0.13093612
-0.0427049423731 -0.00464936984164 0.12862617
-0.0427049423731 -0.00747945054164 0.13550283
-0.0427049423731 -0.00770974054164 0.14006954
-0.0466603583731 -0.00464936984164 0.14463627
-0.0427049423731 -0.00733070714164 0.14463627
-0.0427049423731 -0.00464936984164 0.14713055
-0.0448759673731 -0.00464936984164 0.14920299
-0.0427049423731 -0.00464936984164 0.15099362
-0.0381715213731 -0.00760225474164 0.053301953
-0.0381715213731 -0.00464936984164 0.057370752
-0.0394656533731 -0.00464936984164 0.057868674
-0.0382645563731 -0.00464936984164 0.062435389
-0.0381715213731 -0.00464936984164 0.062554814
-0.0381715213731 -0.00464936984164 0.089176789
-0.0389485163731 -0.00464936984164 0.089835681
-0.0386899063731 -0.00464936984164 0.094402395
-0.0381715213731 -0.00717995214164 0.098969117
-0.0381715213731 -0.00464936984164 0.095071591
-0.0421378483731 -0.00464936984164 0.10353583
-0.0381715213731 -0.00766738404164 0.10353583
-0.0419677263731 -0.00464936984164 0.10810255
-0.0381715213731 -0.00901253044164 0.10810255
-0.0413544873731 -0.00464936984164 0.11266926
-0.0397782793731 -0.00464936984164 0.1263694
-0.0398847113731 -0.00464936984164 0.14920299
-0.0336380993731 -0.00464936984164 -0.0016313456
-0.0338049553731 -0.00464936984164 -0.0014986303
-0.0336380993731 -0.00584324724164 0.0030680876
-0.0344704563731 -0.00464936984164 0.0030680876
-0.0336380993731 -0.00464936984164 0.0045296047
-0.0336380993731 -0.00464936984164 0.010240396
-0.0369216153731 -0.00464936984164 0.012201516
-0.0377977323731 -0.00464936984164 0.016768234
-0.0377969613731 -0.00464936984164 0.021334948
-0.0377961383731 -0.00464936984164 0.025901662
-0.0377952813731 -0.00464936984164 0.03046838
-0.0377942903731 -0.00464936984164 0.035035096
-0.0336380993731 -0.00865024974164 0.03960181
-0.0376349073731 -0.00464936984164 0.03960181
-0.0377839153731 -0.00464936984164 0.044168524
-0.0336380993731 -0.00675329094164 0.048735239
-0.0336380993731 -0.00464936984164 0.04730124
-0.0336380993731 -0.00597019394164 0.053301953
-0.0336380993731 -0.00464936984164 0.054303363
-0.0336380993731 -0.00495994364164 0.067002103
-0.0336380993731 -0.00464936984164 0.066837266
-0.0336380993731 -0.00472248614164 0.071568817
-0.0336380993731 -0.00464936984164 0.089341991
-0.0336380993731 -0.00625538724164 0.098969117
-0.0336380993731 -0.00464936984164 0.097947404
-0.0291046823731 -0.00464936984164 -0.0016313456
-0.0291046823731 -0.00559456914164 0.0030680876
-0.0291046823731 -0.00654101644164 0.0076348018
-0.0291046823731 -0.00464936984164 0.0042007733
-0.0291046823731 -0.00646266614164 0.012201516
-0.0315280653731 -0.00464936984164 0.012201516
-0.0291046823731 -0.00464936984164 0.013627982
-0.0291046823731 -0.00625686614164 0.048735239
-0.0291046823731 -0.00464936984164 0.04710345
-0.0291046823731 -0.00464936984164 0.050432391
-0.0322100283731 -0.00464936984164 0.053301953
-0.0334762583731 -0.00464936984164 0.067002103
-0.0336266553731 -0.00464936984164 0.071568817
-0.0332618413731 -0.00464936984164 0.076135531
-0.0291046823731 -0.00659845664164 0.080702245
-0.0297588063731 -0.00464936984164 0.080702245
-0.0291046823731 -0.00464936984164 0.081832714
-0.0329054803731 -0.00464936984164 0.089835681
-0.0291046823731 -0.00464936984164 0.092975415
-0.0291046823731 -0.00464936984164 0.095987335
-0.0245712573731 -0.00464936984164 -0.0016313456
-0.0245712573731 -0.00640580324164 0.0030680876
-0.0271881023731 -0.00464936984164 0.0076348018
-0.0274109563731 -0.00464936984164 0.012201516
-0.0245712573731 -0.00674006244164 0.048735239
-0.0245712573731 -0.00464936984164 0.046535693
-0.0245712573731 -0.00464936984164 0.052216351
-0.0245712573731 -0.00464936984164 0.061702102
-0.0247246353731 -0.00464936984164 0.062435389
-0.0245712573731 -0.00496533784164 0.062435389
-0.0245712573731 -0.00464936984164 0.062577926
-0.0271483013731 -0.00464936984164 0.085268967
-0.0245712573731 -0.00464936984164 0.088820502
-0.0279663903731 -0.00464936984164 0.094402395
-0.0200378393731 -0.00464936984164 -0.0016313456
-0.0226798673731 -0.00464936984164 0.0076348018
-0.0200378393731 -0.00464936984164 0.0038323049
-0.0220112373731 -0.00464936984164 0.012201516
-0.0200378393731 -0.00719479364164 0.012201516
-0.0200378393731 -0.00464936984164 0.014797581
-0.0200378393731 -0.00691385464164 0.048735239
-0.0200378393731 -0.00464936984164 0.046861373
-0.0231453573731 -0.00464936984164 0.053301953
-0.0200378393731 -0.00635840644164 0.053301953
-0.0224400633731 -0.00464936984164 0.057868674
-0.0200378393731 -0.00604713604164 0.057868674
-0.0200378393731 -0.00626906654164 0.062435389
-0.0200378393731 -0.00464936984164 0.063482612
-0.0236051103731 -0.00464936984164 0.089835681
-0.0200378393731 -0.00464936984164 0.092507526
-0.0155044223731 -0.00464936984164 -0.0017033741
-0.0155044223731 -0.00464936984164 0.0035385881
-0.0181566203731 -0.00464936984164 0.016768234
-0.0155044223731 -0.00734033704164 0.016768234
-0.0155044223731 -0.00464936984164 0.018519321
-0.0182533143731 -0.00464936984164 0.048735239
-0.0185138453731 -0.00464936984164 0.053301953
-0.0187864703731 -0.00464936984164 0.057868674
-0.0187079933731 -0.00464936984164 0.062435389
-0.0155044223731 -0.00464936984164 0.078689948
-0.0170135973731 -0.00464936984164 0.080702245
-0.0155044223731 -0.00670103254164 0.080702245
-0.0169234823731 -0.00464936984164 0.085268967
-0.0155044223731 -0.00660583274164 0.085268967
-0.0155044223731 -0.00464936984164 0.087900005
-0.0160006753731 -0.00464936984164 0.094402395
-0.0155044223731 -0.00464936984164 0.094591975
-0.0109709973731 -0.00464936984164 -0.0061154719
-0.0109709973731 -0.00477535924164 -0.0060653444
-0.0110491833731 -0.00464936984164 -0.0060653444
-0.0109709973731 -0.00464936984164 0.0039548557
-0.0139991663731 -0.00464936984164 0.021334948
-0.0109709973731 -0.00769495484164 0.021334948
-0.0109709973731 -0.00464936984164 0.023021406
-0.0109709973731 -0.00464936984164 0.065581866
-0.0125657643731 -0.00464936984164 0.067002103
-0.0109709973731 -0.00669928534164 0.067002103
-0.0109709973731 -0.00464936984164 0.06846685
-0.0109709973731 -0.00631750644164 0.080702245
-0.0109709973731 -0.00464936984164 0.079045288
-0.0109709973731 -0.00552296534164 0.085268967
-0.0129840693731 -0.00464936984164 0.089835681
-0.0109709973731 -0.00464936984164 0.093609355
-0.0109709973731 -0.00464936984164 0.094556771
-0.00643757937303 -0.00898644224164 -0.0060653444
-0.0109032713731 -0.00464936984164 -0.0060653444
-0.0107577393731 -0.00464936984164 -0.0014986303
-0.00643757937303 -0.00637737184164 -0.0014986303
-0.00981477137303 -0.00464936984164 0.0030680876
-0.00643757937303 -0.00662489874164 0.0076348018
-0.00896603137303 -0.00464936984164 0.0076348018
-0.00643757937303 -0.00464936984164 0.004703911
-0.00643757937303 -0.00672130184164 0.012201516
-0.00867591337303 -0.00464936984164 0.012201516
-0.00643757937303 -0.00672133914164 0.016768234
-0.00867591337303 -0.00464936984164 0.016768234
-0.00870015737303 -0.00464936984164 0.021334948
-0.00643757937303 -0.00691858204164 0.021334948
-0.00963279837303 -0.00464936984164 0.067002103
-0.00643757937303 -0.00669446114164 0.080702245
-0.00643757937303 -0.00464936984164 0.078897201
-0.00643757937303 -0.00781410084164 0.085268967
-0.0107535523731 -0.00464936984164 0.094402395
-0.00190415437303 -0.00909351084164 -0.0060653444
-0.00190415437303 -0.00826685774164 -0.0014986303
-0.00190415437303 -0.00765692714164 0.0030680876
-0.00190415437303 -0.00669781384164 0.0076348018
-0.00190415437303 -0.00464936984164 0.0052227769
-0.00190415437303 -0.00696970424164 0.012201516
-0.00190415437303 -0.00696970424164 0.016768234
-0.00190415437303 -0.00696131484164 0.021334948
-0.00190415437303 -0.00695982104164 0.025901662
-0.00455181537303 -0.00464936984164 0.080702245
-0.00190415437303 -0.00747776304164 0.085268967
-0.00190415437303 -0.00464936984164 0.082738794
-0.00190415437303 -0.00826009264164 0.089835681
0.00262926262697 -0.00894423474164 -0.0060653444
0.00262926262697 -0.00773367184164 -0.0014986303
0.00262926262697 -0.00776711004164 0.0030680876
0.00262926262697 -0.00464936984164 0.0056580957
0.00262926262697 -0.00626210394164 0.0076348018
0.00262926262697 -0.00639564814164 0.012201516
0.00262926262697 -0.00639574504164 0.016768234
0.00262926262697 -0.00687995824164 0.021334948
0.00262926262697 -0.00693680984164 0.025901662
0.00262926262697 -0.00752608374164 0.085268967
0.00262926262697 -0.00464936984164 0.082519993
0.00702946392697 -0.00464936984164 -0.0060653444
0.00716268032697 -0.00464936984164 -0.0061521828
0.00693786642697 -0.00464936984164 -0.0014986303
0.00716268032697 -0.00561958824164 0.0030680876
0.00625895462697 -0.00464936984164 0.0030680876
0.00446853562697 -0.00464936984164 0.0076348018
0.00716268032697 -0.00464936984164 0.0038999114
0.00460659462697 -0.00464936984164 0.012201516
0.00460666962697 -0.00464936984164 0.016768234
0.00486411652697 -0.00464936984164 0.021334948
0.00716268032697 -0.00710715254164 0.025901662
0.00488723572697 -0.00464936984164 0.025901662
0.00716268032697 -0.00464936984164 0.027794762
0.00716268032697 -0.00727375864164 0.067002103
0.00716268032697 -0.00464936984164 0.078700788
0.00483364372697 -0.00464936984164 0.080702245
0.00716268032697 -0.00672489674164 0.080702245
0.00716268032697 -0.00738683244164 0.085268967
0.00716268032697 -0.00464936984164 0.094269954
0.00706825162697 -0.00464936984164 0.094402395
0.00716268032697 -0.00464936984164 0.094487183
0.00730834662697 -0.00464936984164 -0.0060653444
0.0116961052269 -0.00464936984164 -0.001713058
0.0116961052269 -0.00464936984164 0.0035389867
0.0116961052269 -0.00772011174164 0.021334948
0.0116961052269 -0.00464936984164 0.023048067
0.00958353042697 -0.00464936984164 0.025901662
0.0116961052269 -0.00464936984164 0.060424522
0.00964781402697 -0.00464936984164 0.062435389
0.0116961052269 -0.00755379994164 0.067002103
0.00951441882697 -0.00464936984164 0.067002103
0.0116961052269 -0.00464936984164 0.068843305
0.0116961052269 -0.00629641754164 0.080702245
0.0116961052269 -0.00464936984164 0.079063326
0.0116961052269 -0.00502993064164 0.085268967
0.0116961052269 -0.00785100354164 0.094402395
0.0116961052269 -0.00464936984164 0.092270456
0.0116961052269 -0.00464936984164 0.094554603
0.0162295228269 -0.00464936984164 -0.0017781761
0.0162295228269 -0.00464936984164 0.0039694998
0.0162295228269 -0.00680135084164 0.016768234
0.0162295228269 -0.00464936984164 0.018331969
0.0147460898359 -0.00464936984164 0.021334948
0.0138063928069 -0.00464936984164 0.062435389
0.0162295228269 -0.00758599764164 0.062435389
0.0139032950569 -0.00464936984164 0.067002103
0.0162295228269 -0.00750279324164 0.067002103
0.0162295228269 -0.00668054344164 0.080702245
0.0162295228269 -0.00464936984164 0.078869127
0.0162295228269 -0.00700732964164 0.085268967
0.0162295228269 -0.00738154994164 0.089835681
0.0118847241269 -0.00464936984164 0.094402395
0.0207629403269 -0.00464936984164 -0.00290218
0.0207629403269 -0.00464936984164 0.0045258459
0.0207629403269 -0.00664934044164 0.012201516
0.0207629403269 -0.00464936984164 0.014212085
0.0183264589269 -0.00464936984164 0.016768234
0.0207629403269 -0.00672485574164 0.062435389
0.0207629403269 -0.00464936984164 0.060700849
0.0189092135269 -0.00464936984164 0.062435389
0.0207629403269 -0.00703287024164 0.067002103
0.0186299210269 -0.00464936984164 0.067002103
0.0207629403269 -0.00464936984164 0.06855046
0.0174251472269 -0.00464936984164 0.080702245
0.0178526615269 -0.00464936984164 0.085268967
0.0207629403269 -0.00755589354164 0.089835681
0.0187187617269 -0.00464936984164 0.089835681
0.0207629403269 -0.00464936984164 0.091180608
0.0252963656269 -0.00464936984164 -0.0032955203
0.0252963656269 -0.00464936984164 0.000892004
0.0224364673269 -0.00464936984164 0.0030680876
0.0223830169269 -0.00772913074164 0.004791623
0.0230650654269 -0.00464936984164 0.0076348018
0.0252963656269 -0.00464936984164 0.0051348638
0.0222928574269 -0.00464936984164 0.012201516
0.0252963656269 -0.00464936984164 0.046881936
0.0236225551269 -0.00464936984164 0.048735239
0.0252963656269 -0.00705646624164 0.048735239
0.0252963656269 -0.00464936984164 0.052409559
0.0252963656269 -0.00659986114164 0.062435389
0.0252963656269 -0.00464936984164 0.060000211
0.0252963656269 -0.00642366974164 0.067002103
0.0252963656269 -0.00464936984164 0.068383545
0.0252963656269 -0.00637203354164 0.085268967
0.0252963656269 -0.00464936984164 0.086347573
0.0223432978269 -0.00464936984164 0.089835681
0.0298297826269 -0.00464936984164 -0.0032955203
0.0298297826269 -0.00464936984164 0.00098569691
0.0298297826269 -0.00464936984164 0.0054334532
0.0298297826269 -0.00464936984164 0.0099095535
0.0280684136269 -0.00464936984164 0.012201516
0.0298297826269 -0.00658820844164 0.012201516
0.0298297826269 -0.00464936984164 0.013899768
0.0298297826269 -0.00892328364164 0.03960181
0.0272598536269 -0.00464936984164 0.048735239
0.0298297826269 -0.00606904074164 0.053301953
0.0267079676269 -0.00464936984164 0.053301953
0.0298297826269 -0.00464936984164 0.051973172
0.0298297826269 -0.00464936984164 0.054463208
0.0298297826269 -0.00597595324164 0.062435389
0.0298297826269 -0.00464936984164 0.061354734
0.0298297826269 -0.00478845364164 0.067002103
0.0294129976269 -0.00464936984164 0.071568817
0.0298297826269 -0.00536532974164 0.071568817
0.0295252176269 -0.00464936984164 0.076135531
0.0298297826269 -0.00694900274164 0.076135531
0.0292915086269 -0.00464936984164 0.080702245
0.0261107216269 -0.00464936984164 0.085268967
0.0298297826269 -0.00464936984164 0.0915813
0.0271822336269 -0.00464936984164 0.094402395
0.0298297826269 -0.00464936984164 0.09786883
0.0343632006269 -0.00464936984164 -0.002914831
0.0343632006269 -0.00746674364164 0.0030680876
0.0343632006269 -0.00464936984164 0.00048019737
0.0335125676269 -0.00464936984164 0.0076348018
0.0320982236269 -0.00464936984164 0.012201516
0.0343632006269 -0.00464936984164 0.0084875058
0.0343632006269 -0.00847861064164 0.044168524
0.0343632006269 -0.00474527374164 0.053301953
0.0343632006269 -0.00464936984164 0.05325263
0.0343632006269 -0.00464936984164 0.053368218
0.0343632006269 -0.00647446034164 0.062435389
0.0343632006269 -0.00464936984164 0.060792565
0.0343632006269 -0.00568584254164 0.067002103
0.0343632006269 -0.00464936984164 0.088330589
0.0320067386269 -0.00464936984164 0.089835681
0.0343632006269 -0.00637272644164 0.098969117
0.0343632006269 -0.00464936984164 0.097229272
0.0343632006269 -0.00867692654164 0.10353583
0.0358153926269 -0.00464936984164 -0.0014986303
0.0360916606269 -0.00464936984164 0.012201516
0.0365891056269 -0.00464936984164 0.016768234
0.0365891806269 -0.00464936984164 0.021334948
0.0365892696269 -0.00464936984164 0.025901662
0.0365893596269 -0.00464936984164 0.03046838
0.0365534476269 -0.00464936984164 0.035035096
0.0365077456269 -0.00464936984164 0.03960181
0.0365701966269 -0.00464936984164 0.044168524
0.0373460556269 -0.00464936984164 0.048735239
0.0386861906269 -0.00464936984164 0.057868674
0.0388966256269 -0.00551853224164 0.057868674
0.0388966256269 -0.00701027264164 0.062435389
0.0367826576269 -0.00464936984164 0.089835681
0.0377305346269 -0.00464936984164 0.094402395
0.0388966256269 -0.00594736534164 0.094402395
0.0388966256269 -0.00742684574164 0.098969117
0.0388966256269 -0.00750482724164 0.10353583
0.0388966256269 -0.00805646454164 0.10810255
0.0434300506269 -0.00809917124164 0.098969117
0.0434300506269 -0.00702216374164 0.10353583
0.0434300506269 -0.00652598484164 0.10810255
0.0422397606269 -0.00464936984164 0.10810255
0.0434300506269 -0.00464936984164 0.10639255
0.0434300506269 -0.00464936984164 0.10959175
0.0434300506269 -0.00743466144164 0.11723597
0.0434300506269 -0.00464936984164 0.11803888
0.0394344826269 -0.00464936984164 0.12180269
0.0434300506269 -0.00721608744164 0.1263694
0.0434300506269 -0.00464936984164 0.12436502
0.0434300506269 -0.00750130314164 0.13093612
0.0434300506269 -0.00761835174164 0.13550283
0.0434300506269 -0.00699311394164 0.14006954
0.0434300506269 -0.00464936984164 0.14186944
0.0394362706269 -0.00464936984164 0.14463627
0.0393384896269 -0.00464936984164 0.14920299
0.0434300506269 -0.00508806754164 0.1537697
0.0431561516269 -0.00464936984164 0.1537697
0.0434300506269 -0.00464936984164 0.15391336
0.0479634606269 -0.00464936984164 0.10309914
0.0471834586269 -0.00464936984164 0.10353583
0.0443751716269 -0.00689748944164 0.10592978
0.0479634606269 -0.00464936984164 0.10604234
0.0479634606269 -0.00522765414164 0.10810255
0.0469570206269 -0.00464936984164 0.10810255
0.0479634606269 -0.00483595104164 0.11266926
0.0459912616269 -0.00464936984164 0.12180269
0.0445586786269 -0.00701056694164 0.12414184
0.0479634606269 -0.00636982074164 0.1263694
0.0458580906269 -0.00464936984164 0.1263694
0.0479634606269 -0.00464936984164 0.12423065
0.0479634606269 -0.00464936984164 0.12829806
0.0479634606269 -0.00634248454164 0.13550283
0.0462854706269 -0.00464936984164 0.13550283
0.0479634606269 -0.00464936984164 0.13360243
0.0479634606269 -0.00656402384164 0.14006954
0.0454397846269 -0.00464936984164 0.14006954
0.0479634606269 -0.00685133684164 0.14463627
0.0479634606269 -0.00464936984164 0.14724147
0.0464832386269 -0.00464936984164 0.14920299
0.0435970926269 -0.00464936984164 0.1537697
0.0524968856269 -0.00464936984164 0.062687688
0.0496176826269 -0.00464936984164 0.067002103
0.0524968856269 -0.00464936984164 0.071032465
0.0524968856269 -0.00656179604164 0.10353583
0.0524968856269 -0.00464936984164 0.10185945
0.0483303266269 -0.00464936984164 0.10810255
0.0524968856269 -0.00849711424164 0.10810255
0.0480824166269 -0.00464936984164 0.11266926
0.0524968856269 -0.00844496014164 0.11266926
0.0513393926269 -0.00464936984164 0.11723597
0.0524968856269 -0.00552594934164 0.11723597
0.0524968856269 -0.00495035474164 0.12180269
0.0518349456269 -0.00464936984164 0.12180269
0.0524968856269 -0.00495626674164 0.1263694
0.0519355736269 -0.00464936984164 0.13093612
0.0524968856269 -0.00494965434164 0.13093612
0.0524968856269 -0.00495588304164 0.13550283
0.0524968856269 -0.00495567444164 0.14006954
0.0524968856269 -0.00464936984164 0.14154115
0.0513313166269 -0.00464936984164 0.14463627
0.0570303106269 -0.00746268304164 0.053301953
0.0570303106269 -0.00464936984164 0.056431606
0.0536230406269 -0.00464936984164 0.057868674
0.0570303106269 -0.00517827914164 0.062435389
0.0570303106269 -0.00464936984164 0.061331406
0.0570303106269 -0.00508138064164 0.067002103
0.0567797916269 -0.00464936984164 0.067002103
0.0570303106269 -0.00592915984164 0.071568817
0.0570303106269 -0.00464936984164 0.075773917
0.0570053956269 -0.00464936984164 0.076135531
0.0570303106269 -0.00464936984164 0.076689951
0.0570303106269 -0.00464936984164 0.10052884
0.0570303106269 -0.00719631734164 0.10353583
0.0570303106269 -0.00711088524164 0.10810255
0.0570303106269 -0.00475870714164 0.11266926
0.0570303106269 -0.00464936984164 0.11279818
0.0532977186269 -0.00464936984164 0.11723597
0.0527656576269 -0.00464936984164 0.12180269
0.0527633626269 -0.00464936984164 0.1263694
0.0527631836269 -0.00464936984164 0.13093612
0.0527630346269 -0.00464936984164 0.13550283
0.0527628416269 -0.00464936984164 0.14006954
0.0615637206269 -0.00525520644164 0.053301953
0.0615637206269 -0.00464936984164 0.054066934
0.0591410446269 -0.00464936984164 0.062435389
0.0615637206269 -0.00485359774164 0.067002103
0.0615637206269 -0.00464936984164 0.064805619
0.0615637206269 -0.00500252744164 0.071568817
0.0571092116269 -0.00464936984164 0.076135531
0.0615637206269 -0.00623594494164 0.076135531
0.0572920636269 -0.00464936984164 0.080702245
0.0615637206269 -0.00464936984164 0.077612452
0.0615637206269 -0.00559350744164 0.085268967
0.0615637206269 -0.00464936984164 0.084398299
0.0615637206269 -0.00756514714164 0.089835681
0.0615637206269 -0.00741608714164 0.094402395
0.0615637206269 -0.00464936984164 0.09777002
0.0596328876269 -0.00464936984164 0.098969117
0.0615637206269 -0.00562513144164 0.10353583
0.0615637206269 -0.00464936984164 0.11078621
0.0572468686269 -0.00464936984164 0.11266926
0.0660971456269 -0.00725348194164 0.053301953
0.0646687796269 -0.00464936984164 0.057868674
0.0660971456269 -0.00638621944164 0.057868674
0.0630111296269 -0.00464936984164 0.062435389
0.0660971456269 -0.00537270954164 0.062435389
0.0660971456269 -0.00524580744164 0.067002103
0.0660971456269 -0.00502119484164 0.071568817
0.0660971456269 -0.00464936984164 0.071882308
0.0631209956269 -0.00464936984164 0.076135531
0.0660971456269 -0.00605888194164 0.085268967
0.0660971456269 -0.00464936984164 0.08405114
0.0660971456269 -0.00764487204164 0.089835681
0.0660971456269 -0.00734831294164 0.094402395
0.0660971456269 -0.00464936984164 0.097384527
0.0660971456269 -0.00688305764164 0.10353583
0.0660971456269 -0.00464936984164 0.10924904
0.0686151286269 -0.00464936984164 0.076135531
0.0688725316269 -0.00464936984164 0.080702245
0.0676720936269 -0.00464936984164 0.098969117
0.0706305706269 -0.00479965184164 0.10353583
0.0706305706269 -0.00464936984164 0.10341829
0.0675587406269 -0.00464936984164 0.10810255
0.0706305706269 -0.00464936984164 0.10364935
0.0706870306269 -0.00464936984164 0.10353583
-0.0653720443731 -2.97342416398e-05 0.051233053
-0.0653720443731 -0.00341987134164 0.053301953
-0.0673019243731 -2.97342416398e-05 0.053301953
-0.0676219933731 -2.97342416398e-05 0.057868674
-0.0653720443731 -0.00432116064164 0.062435389
-0.0682907943731 -2.97342416398e-05 0.062435389
-0.0653720443731 -0.00424283264164 0.067002103
-0.0680547383731 -2.97342416398e-05 0.067002103
-0.0653720443731 -0.00205340874164 0.071568817
-0.0662060253731 -2.97342416398e-05 0.071568817
-0.0687710893731 -2.97342416398e-05 0.076135531
-0.0671472423731 -2.97342416398e-05 0.080702245
-0.0653720443731 -2.97342416398e-05 0.081887238
-0.0653720443731 -2.97342416398e-05 0.098861262
-0.0654768673731 -2.97342416398e-05 0.098969117
-0.0659769203731 -2.97342416398e-05 0.10353583
-0.0653720443731 -2.97342416398e-05 0.10436888
-0.0608386193731 -2.97342416398e-05 0.050798759
-0.0627968113731 -2.97342416398e-05 0.057868674
-0.0608386193731 -2.97342416398e-05 0.055564806
-0.0608386193731 -0.00444918394164 0.062435389
-0.0608386193731 -2.97342416398e-05 0.059382416
-0.0608386193731 -0.00447574524164 0.067002103
-0.0608386193731 -2.97342416398e-05 0.071544565
-0.0609490303731 -2.97342416398e-05 0.071568817
-0.0608386193731 -2.97342416398e-05 0.071588531
-0.0608386193731 -2.97342416398e-05 0.081906497
-0.0608386193731 -2.97342416398e-05 0.097225904
-0.0615563343731 -2.97342416398e-05 0.10810255
-0.0608386193731 -2.97342416398e-05 0.10860251
-0.0589728603731 -2.97342416398e-05 0.053301953
-0.0563052023731 -2.97342416398e-05 0.059376419
-0.0563052023731 -0.00441425934164 0.062435389
-0.0563052023731 -0.00448306924164 0.067002103
-0.0563052023731 -2.97342416398e-05 0.071520716
-0.0568549883731 -2.97342416398e-05 0.076135531
-0.0587021133731 -2.97342416398e-05 0.080702245
-0.0563052023731 -2.97342416398e-05 0.097468629
-0.0563052023731 -2.97342416398e-05 0.11088465
-0.0517717843731 -2.97342416398e-05 0.051487677
-0.0517717843731 -0.00400962574164 0.053301953
-0.0539631493731 -2.97342416398e-05 0.053301953
-0.0517717843731 -0.00444635644164 0.057868674
-0.0549598733731 -2.97342416398e-05 0.057868674
-0.0517717843731 -0.00446994504164 0.062435389
-0.0517717843731 -0.00384450224164 0.067002103
-0.0517717843731 -2.97342416398e-05 0.070418358
-0.0523173083731 -2.97342416398e-05 0.098969117
-0.0517717843731 -2.97342416398e-05 0.099200383
-0.0545906523731 -2.97342416398e-05 0.11266926
-0.0525436873731 -2.97342416398e-05 0.11723597
-0.0517717843731 -0.00436907154164 0.12180269
-0.0517717843731 -2.97342416398e-05 0.11819038
-0.0517717843731 -2.97342416398e-05 0.12535854
-0.0525660913731 -2.97342416398e-05 0.1263694
-0.0526426903731 -2.97342416398e-05 0.13093612
-0.0517717843731 -0.00432600354164 0.13550283
-0.0517717843731 -2.97342416398e-05 0.13216533
-0.0517717843731 -2.97342416398e-05 0.1397288
-0.0519755353731 -2.97342416398e-05 0.14006954
-0.0517717843731 -2.97342416398e-05 0.14045803
-0.0472383593731 -2.97342416398e-05 0.051702961
-0.0472383593731 -0.00385985794164 0.053301953
-0.0472383593731 -0.00451030484164 0.057868674
-0.0472383593731 -0.00280541454164 0.062435389
-0.0472383593731 -2.97342416398e-05 0.064273179
-0.0491504843731 -2.97342416398e-05 0.067002103
-0.0472383593731 -2.97342416398e-05 0.10179178
-0.0472383593731 -0.00226838414164 0.11723597
-0.0472383593731 -2.97342416398e-05 0.12104934
-0.0472383593731 -0.00127357514164 0.1263694
-0.0472383593731 -2.97342416398e-05 0.12363397
-0.0472383593731 -2.97342416398e-05 0.13535906
-0.0472383593731 -0.00143344974164 0.14006954
-0.0472383593731 -2.97342416398e-05 0.13585554
-0.0479374103731 -2.97342416398e-05 0.14463627
-0.0472383593731 -2.97342416398e-05 0.14543265
-0.0427049423731 -2.97342416398e-05 0.051803112
-0.0427049423731 -0.00367757944164 0.053301953
-0.0427049423731 -0.00437222314164 0.057868674
-0.0427049423731 -2.97342416398e-05 0.060834989
-0.0453882053731 -2.97342416398e-05 0.062435389
-0.0427049423731 -2.97342416398e-05 0.10314344
-0.0427049423731 -2.97342416398e-05 0.1091166
-0.0469242803731 -2.97342416398e-05 0.11266926
-0.0427049423731 -0.00268240914164 0.11266926
-0.0427049423731 -2.97342416398e-05 0.11476965
-0.0427049423731 -0.00231402634164 0.11723597
-0.0464422543731 -2.97342416398e-05 0.12180269
-0.0427049423731 -0.00239005954164 0.12180269
-0.0452284243731 -0.00217030844164 0.12401852
-0.0427049423731 -0.00235469914164 0.1263694
-0.0427049423731 -2.97342416398e-05 0.12416793
-0.0460833893731 -2.97342416398e-05 0.1263694
-0.0427049423731 -2.97342416398e-05 0.12863792
-0.0427049423731 -0.00234280424164 0.13093612
-0.0427049423731 -0.00176917284164 0.13550283
-0.0469890443731 -2.97342416398e-05 0.13550283
-0.0427049423731 -2.97342416398e-05 0.13754168
-0.0456095253731 -2.97342416398e-05 0.14006954
-0.0466693963731 -2.97342416398e-05 0.14463627
-0.0448759553731 -2.97342416398e-05 0.14920299
-0.0427049423731 -2.97342416398e-05 0.14744757
-0.0427049423731 -2.97342416398e-05 0.15099362
-0.0381715213731 -2.97342416398e-05 0.050957225
-0.0381715213731 -0.00349609454164 0.053301953
-0.0381715213731 -0.00432656604164 0.062435389
-0.0381715213731 -2.97342416398e-05 0.061269373
-0.0381715213731 -2.97342416398e-05 0.089176781
-0.0388748033731 -2.97342416398e-05 0.089835681
-0.0385174443731 -2.97342416398e-05 0.094402395
-0.0381715213731 -2.97342416398e-05 0.094815843
-0.0423487523731 -2.97342416398e-05 0.10353583
-0.0422533853731 -2.97342416398e-05 0.10810255
-0.0396920503731 -2.97342416398e-05 0.11723597
-0.0396915733731 -2.97342416398e-05 0.12180269
-0.0397511033731 -2.97342416398e-05 0.13093612
-0.0399801163731 -2.97342416398e-05 0.13550283
-0.0398847263731 -2.97342416398e-05 0.14920299
-0.0336380993731 -0.00447071984164 -0.0014986303
-0.0336380993731 -2.97342416398e-05 0.0025828499
-0.0342462313731 -2.97342416398e-05 0.0030680876
-0.0336380993731 -2.97342416398e-05 0.0041326154
-0.0336380993731 -2.97342416398e-05 0.01008668
-0.0378628103731 -2.97342416398e-05 0.012201516
-0.0380950743731 -2.97342416398e-05 0.016768234
-0.0380959723731 -2.97342416398e-05 0.021334948
-0.0380959723731 -2.97342416398e-05 0.025901662
-0.0380959723731 -2.97342416398e-05 0.03046838
-0.0380959643731 -2.97342416398e-05 0.035035096
-0.0380959353731 -2.97342416398e-05 0.03960181
-0.0379103823731 -2.97342416398e-05 0.044168524
-0.0336380993731 -2.97342416398e-05 0.046303079
-0.0349674363731 -2.97342416398e-05 0.053301953
-0.0336380993731 -2.97342416398e-05 0.054824173
-0.0360437763731 -2.97342416398e-05 0.062435389
-0.0336380993731 -2.97342416398e-05 0.063941635
-0.0336380993731 -2.97342416398e-05 0.089348428
-0.0336380993731 -2.97342416398e-05 0.097755805
-0.0291046823731 -0.00447071984164 -0.0014986303
-0.0291046823731 -2.97342416398e-05 0.0025828499
-0.0313516913731 -2.97342416398e-05 0.0076348018
-0.0291046823731 -0.00228876514164 0.0076348018
-0.0291046823731 -2.97342416398e-05 0.009854706
-0.0315816803731 -2.97342416398e-05 0.012201516
-0.0291046823731 -2.97342416398e-05 0.013717869
-0.0291046823731 -2.97342416398e-05 0.042493224
-0.0316220883731 -2.97342416398e-05 0.044168524
-0.0291046823731 -0.00229597734164 0.044168524
-0.0291046823731 -0.00227875164164 0.053301953
-0.0291046823731 -0.00339255754164 0.057868674
-0.0318419133731 -2.97342416398e-05 0.057868674
-0.0291046823731 -2.97342416398e-05 0.060763046
-0.0302455673731 -2.97342416398e-05 0.067002103
-0.0303865843731 -2.97342416398e-05 0.071568817
-0.0303602913731 -2.97342416398e-05 0.076135531
-0.0296940153731 -2.97342416398e-05 0.080702245
-0.0291046823731 -2.97342416398e-05 0.081824563
-0.0329079913731 -2.97342416398e-05 0.089835681
-0.0291046823731 -2.97342416398e-05 0.092979446
-0.0291046823731 -2.97342416398e-05 0.095987335
-0.0245712573731 -0.00447071984164 -0.0014986303
-0.0245712573731 -2.97342416398e-05 0.0025828499
-0.0272913223731 -2.97342416398e-05 0.012201516
-0.0245712573731 -0.00236452644164 0.044168524
-0.0245712573731 -2.97342416398e-05 0.042426758
-0.0257059653731 -2.97342416398e-05 0.053301953
-0.0245712573731 -2.97342416398e-05 0.052728102
-0.0245712573731 -0.00337055594164 0.057868674
-0.0245712573731 -2.97342416398e-05 0.054263987
-0.0250703943731 -2.97342416398e-05 0.062435389
-0.0245712573731 -2.97342416398e-05 0.06259241
-0.0272196333731 -2.97342416398e-05 0.085268967
-0.0245712573731 -2.97342416398e-05 0.088879563
-0.0279666283731 -2.97342416398e-05 0.094402395
-0.0200378393731 -0.00447071984164 -0.0014986303
-0.0200378393731 -2.97342416398e-05 0.0025828499
-0.0200378393731 -2.97342416398e-05 0.0036807042
-0.0225643243731 -2.97342416398e-05 0.0076348018
-0.0227069953731 -2.97342416398e-05 0.012201516
-0.0220607173731 -2.97342416398e-05 0.016768234
-0.0200378393731 -0.00270597534164 0.016768234
-0.0200378393731 -2.97342416398e-05 0.018452598
-0.0200378393731 -0.00181764264164 0.044168524
-0.0200378393731 -2.97342416398e-05 0.04287643
-0.0240742733731 -2.97342416398e-05 0.053301953
-0.0200378393731 -2.97342416398e-05 0.064254217
-0.0236613623731 -2.97342416398e-05 0.089835681
-0.0200378393731 -2.97342416398e-05 0.092590407
-0.0155044223731 -0.00445936514164 -0.0014986303
-0.0155044223731 -2.97342416398e-05 0.0025828499
-0.0155044223731 -2.97342416398e-05 0.0040345248
-0.0185469333731 -2.97342416398e-05 0.021334948
-0.0155044223731 -0.00316937164164 0.021334948
-0.0155044223731 -2.97342416398e-05 0.023089493
-0.0185378443731 -2.97342416398e-05 0.044168524
-0.0155044223731 -0.00179410994164 0.048735239
-0.0155044223731 -2.97342416398e-05 0.047175385
-0.0155044223731 -0.00176812604164 0.053301953
-0.0155044223731 -0.00166448844164 0.057868674
-0.0155044223731 -0.00152378054164 0.062435389
-0.0155044223731 -2.97342416398e-05 0.063676521
-0.0155044223731 -2.97342416398e-05 0.074440569
-0.0174508863731 -2.97342416398e-05 0.076135531
-0.0155044223731 -0.00224764914164 0.076135531
-0.0175218383731 -2.97342416398e-05 0.080702245
-0.0155044223731 -0.00230986894164 0.085268967
-0.0155044223731 -2.97342416398e-05 0.083429366
-0.0160008173731 -2.97342416398e-05 0.094402395
-0.0155044223731 -2.97342416398e-05 0.094591975
-0.0109709973731 -0.00459971924164 -0.0060653444
-0.0109709973731 -0.00455947864164 -0.0014986303
-0.0109709973731 -2.97342416398e-05 0.0028043073
-0.0130430703731 -2.97342416398e-05 0.0076348018
-0.0109709973731 -0.00213472814164 0.0076348018
-0.0109709973731 -2.97342416398e-05 0.0095409509
-0.0133586103731 -2.97342416398e-05 0.025901662
-0.0109709973731 -0.00245074454164 0.025901662
-0.0109709973731 -2.97342416398e-05 0.027779261
-0.0142693613731 -2.97342416398e-05 0.048735239
-0.0142468163731 -2.97342416398e-05 0.053301953
-0.0143165393731 -2.97342416398e-05 0.057868674
-0.0144325743731 -2.97342416398e-05 0.062435389
-0.0109709973731 -0.00343414664164 0.067002103
-0.0109709973731 -0.00219996544164 0.076135531
-0.0109709973731 -2.97342416398e-05 0.074443519
-0.0139734543731 -2.97342416398e-05 0.085268967
-0.0132482073731 -2.97342416398e-05 0.089835681
-0.0109709973731 -2.97342416398e-05 0.09406358
-0.0109709973731 -2.97342416398e-05 0.094556771
-0.0104970733731 -2.97342416398e-05 0.0030680876
-0.00643757937303 -2.97342416398e-05 0.0048022736
-0.00925615637303 -2.97342416398e-05 0.012201516
-0.00905360537303 -2.97342416398e-05 0.016768234
-0.00877250937303 -2.97342416398e-05 0.021334948
-0.00872443837303 -2.97342416398e-05 0.025901662
-0.00643757937303 -0.00192941624164 0.076135531
-0.00643757937303 -2.97342416398e-05 0.07474228
-0.00643757937303 -2.97342416398e-05 0.089229584
-0.00643757937303 -0.00077286260164 0.089835681
-0.00729453037303 -2.97342416398e-05 0.089835681
-0.00643757937303 -2.97342416398e-05 0.091048211
-0.0104698483731 -2.97342416398e-05 0.094402395
-0.00190415437303 -2.97342416398e-05 0.0047044773
-0.00480706437303 -2.97342416398e-05 0.076135531
-0.00190415437303 -0.00253918294164 0.080702245
-0.00190415437303 -2.97342416398e-05 0.078567691
-0.00533588437303 -2.97342416398e-05 0.089835681
0.00262926262697 -2.97342416398e-05 0.0046726894
0.00262926262697 -0.00273021954164 0.080702245
0.00262926262697 -2.97342416398e-05 0.078329891
0.00262926262697 -2.97342416398e-05 0.088998742
0.00262926262697 -0.00078572230164 0.089835681
0.00151218262697 -2.97342416398e-05 0.089835681
0.00262926262697 -2.97342416398e-05 0.090487145
0.00716268032697 -0.00456324114164 -0.0060653444
0.00716268032697 -0.00451907414164 -0.0014986303
0.00716268032697 -0.00347984854164 0.0030680876
0.00716268032697 -0.00194416094164 0.0076348018
0.00716268032697 -2.97342416398e-05 0.0052666795
0.00716268032697 -0.00205086064164 0.012201516
0.00716268032697 -0.00205092404164 0.016768234
0.00716268032697 -0.00230763754164 0.021334948
0.00716268032697 -0.00233080134164 0.025901662
0.00716268032697 -2.97342416398e-05 0.074480399
0.00498139612697 -2.97342416398e-05 0.076135531
0.00716268032697 -0.00220683114164 0.076135531
0.00353342762697 -2.97342416398e-05 0.089835681
0.00702642402697 -2.97342416398e-05 0.094402395
0.00716268032697 -2.97342416398e-05 0.094199926
0.00716268032697 -2.97342416398e-05 0.09448719
0.0116961052269 -0.00446524364164 -0.0014986303
0.0116961052269 -2.97342416398e-05 0.0025828499
0.0106400227269 -2.97342416398e-05 0.0030680876
0.00938613472697 -2.97342416398e-05 0.0076348018
0.0116961052269 -2.97342416398e-05 0.004042929
0.00887509192697 -2.97342416398e-05 0.012201516
0.00878427682697 -2.97342416398e-05 0.016768234
0.00932916012697 -2.97342416398e-05 0.021334948
0.0116961052269 -0.00250067464164 0.025901662
0.00941680132697 -2.97342416398e-05 0.025901662
0.0116961052269 -2.97342416398e-05 0.02780482
0.0116961052269 -2.97342416398e-05 0.060161307
0.00967480742697 -2.97342416398e-05 0.062435389
0.00946105772697 -2.97342416398e-05 0.067002103
0.0116961052269 -2.97342416398e-05 0.069084257
0.0116961052269 -0.00219172884164 0.076135531
0.0116961052269 -2.97342416398e-05 0.074262068
0.0116961052269 -2.97342416398e-05 0.093953498
0.0116961052269 -2.97342416398e-05 0.094554611
0.0162295228269 -0.00419762254164 -0.0014986303
0.0162295228269 -2.97342416398e-05 0.0023484062
0.0144433429469 -2.97342416398e-05 0.0076348018
0.0162295228269 -0.00141480464164 0.0076348018
0.0162295228269 -2.97342416398e-05 0.0090580676
0.0162295228269 -0.00315471264164 0.021334948
0.0162295228269 -2.97342416398e-05 0.023049643
0.0141036933269 -2.97342416398e-05 0.025901662
0.0162295228269 -2.97342416398e-05 0.047108337
0.0144688090269 -2.97342416398e-05 0.048735239
0.0162295228269 -0.00199744744164 0.048735239
0.0143237685769 -2.97342416398e-05 0.053301953
0.0162295228269 -0.00212633134164 0.053301953
0.0139642333569 -2.97342416398e-05 0.057868674
0.0162295228269 -0.00193094364164 0.057868674
0.0162295228269 -0.00256173214164 0.062435389
0.0162295228269 -0.00235773894164 0.067002103
0.0162295228269 -2.97342416398e-05 0.068763405
0.0162295228269 -0.00204978784164 0.076135531
0.0162295228269 -2.97342416398e-05 0.074638456
0.0162295228269 -2.97342416398e-05 0.088383928
0.0162295228269 -0.00180497294164 0.089835681
0.0144935524069 -2.97342416398e-05 0.089835681
0.0162295228269 -2.97342416398e-05 0.091768272
0.0122136822269 -2.97342416398e-05 0.094402395
0.0202669775269 -2.97342416398e-05 -0.0014986303
0.0207629403269 -2.97342416398e-05 -0.0018142164
0.0207629403269 -2.97342416398e-05 0.0037941989
0.0179268693269 -2.97342416398e-05 0.0076348018
0.0207629403269 -0.00209905474164 0.016768234
0.0207629403269 -2.97342416398e-05 0.018217312
0.0192413976269 -2.97342416398e-05 0.021334948
0.0180084681269 -2.97342416398e-05 0.048735239
0.0184977030269 -2.97342416398e-05 0.053301953
0.0188289633269 -2.97342416398e-05 0.057868674
0.0207629403269 -2.97342416398e-05 0.059355281
0.0207629403269 -2.97342416398e-05 0.068661086
0.0177500223269 -2.97342416398e-05 0.076135531
0.0181675678269 -2.97342416398e-05 0.080702245
0.0182429900269 -2.97342416398e-05 0.085268967
0.0207629403269 -2.97342416398e-05 0.091253616
0.0252963656269 -2.97342416398e-05 -0.0032786708
0.0252963656269 -2.97342416398e-05 0.00087833032
0.0214177420269 -2.97342416398e-05 0.0030680876
0.0226844376269 -2.97342416398e-05 0.0076348018
0.0252963656269 -2.97342416398e-05 0.005130915
0.0229586636269 -2.97342416398e-05 0.012201516
0.0222178897269 -2.97342416398e-05 0.016768234
0.0252963656269 -2.97342416398e-05 0.04737407
0.0235871797269 -2.97342416398e-05 0.048735239
0.0252963656269 -2.97342416398e-05 0.05214446
0.0252963656269 -2.97342416398e-05 0.054665633
0.0232270410269 -2.97342416398e-05 0.057868674
0.0252963656269 -0.00219443334164 0.057868674
0.0252963656269 -2.97342416398e-05 0.068578415
0.0252963656269 -2.97342416398e-05 0.086377144
0.0224058231269 -2.97342416398e-05 0.089835681
0.0298297826269 -2.97342416398e-05 -0.0032955203
0.0298297826269 -2.97342416398e-05 0.00097067654
0.0298297826269 -2.97342416398e-05 0.0053661782
0.0298297826269 -2.97342416398e-05 0.0098036025
0.0278626876269 -2.97342416398e-05 0.012201516
0.0298297826269 -2.97342416398e-05 0.014072599
0.0270236776269 -2.97342416398e-05 0.048735239
0.0298297826269 -0.00350777704164 0.053301953
0.0264225656269 -2.97342416398e-05 0.057868674
0.0298297826269 -0.00357336824164 0.062435389
0.0266359346269 -2.97342416398e-05 0.062435389
0.0298297826269 -2.97342416398e-05 0.066860214
0.0286746446269 -2.97342416398e-05 0.071568817
0.0290044816269 -2.97342416398e-05 0.076135531
0.0283641866269 -2.97342416398e-05 0.080702245
0.0260800766269 -2.97342416398e-05 0.085268967
0.0298297826269 -2.97342416398e-05 0.091589019
0.0271828816269 -2.97342416398e-05 0.094402395
0.0298297826269 -2.97342416398e-05 0.097868532
0.0343632006269 -2.97342416398e-05 -0.0029532481
0.0343632006269 -2.97342416398e-05 0.00020728633
0.0330882716269 -2.97342416398e-05 0.0076348018
0.0343632006269 -2.97342416398e-05 0.0089308452
0.0322245556269 -2.97342416398e-05 0.012201516
0.0343632006269 -2.97342416398e-05 0.05323036
0.0342976646269 -2.97342416398e-05 0.053301953
0.0343632006269 -2.97342416398e-05 0.053353049
0.0343632006269 -0.00310278584164 0.062435389
0.0343632006269 -2.97342416398e-05 0.065193795
0.0343632006269 -2.97342416398e-05 0.088344328
0.0320148366269 -2.97342416398e-05 0.089835681
0.0343632006269 -2.97342416398e-05 0.096857563
0.0359203416269 -2.97342416398e-05 -0.0014986303
0.0363006196269 -2.97342416398e-05 0.012201516
0.0369008676269 -2.97342416398e-05 0.016768234
0.0369008676269 -2.97342416398e-05 0.021334948
0.0369008386269 -2.97342416398e-05 0.025901662
0.0369008386269 -2.97342416398e-05 0.03046838
0.0369008236269 -2.97342416398e-05 0.035035096
0.0369008086269 -2.97342416398e-05 0.03960181
0.0369086316269 -2.97342416398e-05 0.044168524
0.0367424536269 -2.97342416398e-05 0.048735239
0.0388966256269 -0.00449650634164 0.057868674
0.0388966256269 -2.97342416398e-05 0.054657601
0.0388966256269 -0.00358472664164 0.062435389
0.0388966256269 -2.97342416398e-05 0.063517347
0.0367816136269 -2.97342416398e-05 0.089835681
0.0373363696269 -2.97342416398e-05 0.094402395
0.0434300506269 -2.97342416398e-05 0.054374307
0.0434300506269 -0.00442232834164 0.057868674
0.0434300506269 -0.00307991254164 0.062435389
0.0434300506269 -2.97342416398e-05 0.063656524
0.0434300506269 -2.97342416398e-05 0.10665733
0.0421178096269 -2.97342416398e-05 0.10810255
0.0434300506269 -2.97342416398e-05 0.10957672
0.0434300506269 -2.97342416398e-05 0.11771363
0.0394182556269 -2.97342416398e-05 0.12180269
0.0434300506269 -2.97342416398e-05 0.12437569
0.0434300506269 -2.97342416398e-05 0.12870091
0.0434300506269 -0.00202743234164 0.13093612
0.0395703666269 -2.97342416398e-05 0.13093612
0.0434300506269 -0.00194344194164 0.13550283
0.0395492966269 -2.97342416398e-05 0.13550283
0.0434300506269 -0.00256860154164 0.14006954
0.0395556436269 -2.97342416398e-05 0.14006954
0.0434300506269 -0.00209321724164 0.14463627
0.0434300506269 -2.97342416398e-05 0.14233361
0.0434300506269 -2.97342416398e-05 0.1468475
0.0395126396269 -2.97342416398e-05 0.14920299
0.0431536936269 -2.97342416398e-05 0.1537697
0.0434300506269 -2.97342416398e-05 0.15391468
0.0479634606269 -2.97342416398e-05 0.054066196
0.0479634606269 -0.00444631924164 0.057868674
