# .PCD v0.7 - Point Cloud Data file format
VERSION 0.7
FIELDS x y z
SIZE 4 4 4
TYPE F F F
COUNT 1 1 1
WIDTH 1236
HEIGHT 1
VIEWPOINT 0 0 0 1 0 0 0
POINTS 1236
DATA ascii
0.0111480303269 0.01098 0.056567796
0.0111372698269 0.011 0.056556478
0.0111372698269 0.01098 0.056556478
0.0111304031269 0.01098 0.056544915
0.0111215509269 0.011 0.056522466
0.0111090209269 0.01098 0.056466378
0.0110853830269 0.011 0.056087725
0.0110776558269 0.011 0.054410744
0.0111595554269 0.011 0.056614779
0.0111595554269 0.011 0.05657389
0.0109386196269 0.01098 0.056623869
0.0111595554269 0.01098 0.056614779
0.0103457387269 0.01098 0.056642037
0.00938447792694 0.011 0.056607749
0.00991642142694 0.01098 0.056648169
0.00799317692694 0.011 0.055079408
0.00801845672694 0.011 0.055393491
0.00801845672694 0.01098 0.055393491
0.00807764322694 0.011 0.055631641
0.00828783252694 0.011 0.05602923
0.00843481852694 0.011 0.056191459
0.00843481852694 0.01098 0.056191459
0.00859823862694 0.011 0.056323249
0.00859823862694 0.01098 0.056323249
0.00878660422694 0.01098 0.056434046
0.00856642272694 0.01098 0.053858008
0.00842216372694 0.011 0.053982355
0.00827562192694 0.01098 0.054157168
0.00815701712694 0.01098 0.054355789
0.00806783732694 0.011 0.054577887
0.00800794212694 0.011 0.054850414
0.00800794212694 0.01098 0.054850414
0.00896222552694 0.01098 0.053619068
0.00863393712694 0.011 0.053806722
0.00896222552694 0.011 0.053605497
0.00869107562694 0.011 0.053227987
0.00869107562694 0.01098 0.053227987
0.00896222552694 0.01098 0.053605497
0.00728356782694 0.01098 0.051346723
0.00736967602694 0.01098 0.051428769
0.00761318712694 0.011 0.051732037
0.00772708782694 0.011 0.051885881
0.00772708782694 0.01098 0.051885881
0.00728356782694 0.011 0.051305763
0.00728356782694 0.011 0.051346723
0.00728356782694 0.01098 0.051305763
0.00843512952694 0.011 0.051314406
0.00832485632694 0.011 0.051305946
0.00843512952694 0.01098 0.051314406
0.00830714812694 0.011 0.051305763
0.00917382852694 0.01098 0.052297715
0.00917382852694 0.011 0.052297715
0.00852546602694 0.011 0.051333133
0.00852546602694 0.01098 0.051333133
0.00992441772694 0.011 0.053414382
0.0100267626269 0.01098 0.051346723
0.0100392973269 0.01098 0.051356658
0.0100533193269 0.011 0.051378418
0.0100635173269 0.011 0.051406108
0.0100635173269 0.01098 0.051406108
0.0101038901269 0.011 0.052017201
0.0101086622269 0.011 0.053141367
0.0111595554269 0.01098 0.051305763
0.0111595554269 0.011 0.051346723
0.0110776558269 0.011 0.053660028
0.0111010236269 0.01098 0.051532697
0.0111152477269 0.011 0.051430687
0.0111266108269 0.011 0.051390085
0.0111266108269 0.01098 0.051390085
0.0111341340269 0.011 0.051373336
0.0111341340269 0.01098 0.051373336
0.0111409327269 0.01098 0.05136266
0.0111472061269 0.011 0.051355522
0.0111472061269 0.01098 0.051355522
-0.0148886393731 0.010971818 0.088631764
-0.0167863093731 0.011 0.087339409
-0.0168694543731 0.011 0.087291725
-0.0171437363731 0.010971818 0.08782848
-0.0229599873731 0.00465 0.090753719
-0.0229411593731 0.0052475878 0.090732746
-0.0220130783731 0.00465 0.091498815
-0.0214309903731 0.00465 0.091956846
-0.0201818743731 0.00465 0.092700332
-0.0156561863731 0.01039414 0.090591982
-0.0151158853731 0.010774939 0.089685544
-0.0129392243731 0.01079121 0.089828491
-0.0137911313731 0.010774939 0.089882374
-0.0129392243731 0.010774939 0.089917578
-0.0129392243731 0.010549152 0.090591982
-0.0160963223731 0.0099491188 0.091323428
-0.0160963223731 0.0091385189 0.092345275
-0.0173484483731 0.0091401283 0.091970257
-0.0160963223731 0.0097107328 0.091671795
-0.0170669733731 0.0098452503 0.091180049
-0.0160963223731 0.009842582 0.091479115
-0.0177697453731 0.0073536984 0.093152985
-0.0160963223731 0.0074837659 0.093572572
-0.0160963223731 0.0082996078 0.093070045
-0.0178970193731 0.0063255937 0.093510285
-0.0160963223731 0.0067122704 0.093903691
-0.0160963223731 0.0054845507 0.094199628
-0.0160963223731 0.0050042896 0.094232053
-0.0243203923731 0.00465 0.089362808
-0.0250649033731 0.0052475878 0.088373967
-0.0242990133731 0.0052475878 0.089344449
-0.0249054533731 0.0063255937 0.088258483
-0.0238618463731 0.0073536984 0.088969141
-0.0234442343731 0.0083012832 0.088610612
-0.0243821463731 0.0078131156 0.087879479
-0.0241524973731 0.0083012832 0.087713152
-0.0232382923731 0.0094962548 0.087051049
-0.0215537793731 0.010395652 0.086987644
-0.0213019273731 0.010774939 0.085648641
-0.0194921553731 0.011 0.085218124
-0.0199557793731 0.010971818 0.085615754
-0.0192877373731 0.011 0.085467525
-0.0160422903731 0.010971818 0.088303402
-0.0148389923731 0.011 0.088030793
-0.0145040773731 0.01050382 0.090591982
-0.0129392243731 0.01093527 0.089039691
-0.0137021903731 0.010971818 0.088808045
-0.0164040203731 0.010774939 0.089318909
-0.0160963223731 0.01035224 0.090591982
-0.0179630803731 0.0052475878 0.093695745
-0.0196568063731 0.0063255937 0.092751503
-0.0194843583731 0.0073536984 0.092413679
-0.0175850563731 0.0083012832 0.092634499
-0.0192341153731 0.0083012832 0.09192346
-0.0189135213731 0.0091401283 0.091295429
-0.0181012993731 0.010395652 0.08970432
-0.0167490043731 0.010395652 0.090287402
-0.0158325363731 0.011 0.087743975
-0.0197463213731 0.0052475878 0.092926852
-0.0213035813731 0.0063255937 0.091771327
-0.0210888563731 0.0073536984 0.091458671
-0.0203780853731 0.0091401283 0.090423711
-0.0185321293731 0.0098452503 0.090548299
-0.0199032003731 0.0098452503 0.08973223
-0.0176338653731 0.010774939 0.088788621
-0.0193667543731 0.010395652 0.088951111
-0.0187847263731 0.010774939 0.088103622
-0.0214150343731 0.0052475878 0.091933616
-0.0225562473731 0.0073536984 0.09030401
-0.0221885543731 0.0083012832 0.089894451
-0.0207772653731 0.0083012832 0.09100496
-0.0211571033731 0.0098452503 0.088745557
-0.0205240723731 0.010395652 0.088040449
-0.0181744493731 0.010971818 0.087214991
-0.0191170823731 0.010971818 0.086473256
-0.0178307093731 0.011 0.086715132
-0.0185375873731 0.011 0.086185992
-0.0228096343731 0.0063255937 0.090586245
-0.0241496293731 0.0063255937 0.089216202
-0.0217174983731 0.0091401283 0.089369759
-0.0229092263731 0.0091401283 0.088151306
-0.0222727573731 0.0098452503 0.087604895
-0.0198372443731 0.010774939 0.087275416
-0.0207737113731 0.010774939 0.086317949
-0.0129392243731 0.010971818 0.088839568
0.0117465783269 0.010774939 0.089917578
0.00953852612694 0.012 0.058964286
0.00728277062694 0.012 0.06026664
0.00560848732694 0.011 0.06226198
0.00505598202694 0.012 0.063446827
0.00471761962694 0.012 0.064709619
0.00460367762694 0.011 0.06601198
0.00460367762694 0.012 0.06601198
0.00471761962694 0.011 0.067314342
0.00471761962694 0.012 0.067314342
0.00560848732694 0.012 0.069761984
0.00560848732694 0.011 0.069761984
0.00635834352694 0.011 0.070832886
0.00835367702694 0.011 0.072507173
0.00953852612694 0.011 0.073059678
0.00953852612694 0.012 0.073059678
0.0108013157269 0.011 0.073398039
0.0121036771269 0.012 0.07351198
0.0134060386269 0.012 0.073398039
0.0134060386269 0.011 0.073398039
0.0146688282469 0.011 0.073059678
0.0158536782269 0.011 0.072507173
0.0146688282469 0.012 0.073059678
0.0169245837269 0.011 0.071757317
0.0169245837269 0.012 0.071757317
0.0178490108269 0.011 0.070832886
0.0190547885269 0.011 0.068784259
0.0194897348269 0.011 0.067314342
0.0191513722269 0.012 0.068577133
0.0194897348269 0.011 0.064709619
0.0191513722269 0.011 0.063446827
0.0191513722269 0.012 0.063446827
0.0185988670269 0.012 0.06226198
0.0185988670269 0.011 0.06226198
0.0180888934269 0.011 0.061533656
0.0178490108269 0.012 0.061191071
0.0169245837269 0.012 0.06026664
0.0158536782269 0.011 0.059516784
0.0158536782269 0.012 0.059516784
0.0146688282469 0.012 0.058964286
0.0134060386269 0.011 0.058625922
0.0134060386269 0.012 0.058625922
0.0121036771269 0.011 0.05851198
0.0118643840269 0.011 0.058532916
0.0108013157269 0.011 0.058625922
0.00953852612694 0.011 0.058964286
0.0149036770669 0.00465 0.094255976
0.0192362027269 0.010971818 0.085016318
0.0195810677269 0.010774939 0.086317949
0.0205045579269 0.010594886 0.085934915
0.0220456471269 0.0094962548 0.087051049
0.0223887725269 0.0091401283 0.087299556
0.0222515886269 0.0083012832 0.088610612
0.0229598520269 0.0083012832 0.087713152
0.0235669812269 0.0068136519 0.088152871
0.0226692011269 0.0073536984 0.088969141
0.0229569835269 0.0063255937 0.089216202
0.0237128058269 0.0063255937 0.088258483
0.0237981764269 0.0057484321 0.088320307
0.0185536736269 0.0052475878 0.092926852
0.0185664868269 0.00465 0.092951953
0.0167704349269 0.0052475878 0.093695745
0.0149036770669 0.0057848566 0.094151385
0.0149036770669 0.0063226782 0.094013713
0.0163924111269 0.0083012832 0.092634499
0.0149036770669 0.0084928656 0.092928581
0.0161558030269 0.0091401283 0.091970257
0.0149036770669 0.0094388854 0.092017181
0.0149036770669 0.0099400114 0.091337673
0.0155563591069 0.010395652 0.090287402
0.0149036770669 0.01035224 0.090591982
0.0144667386969 0.010394172 0.090591982
0.0152113748669 0.010774939 0.089318909
0.0125984860269 0.010774939 0.089882374
0.0126595882269 0.010522105 0.090591982
0.0133453229269 0.01050179 0.090591982
0.0141246937169 0.010426996 0.090591982
0.0117465783269 0.010549152 0.090591982
0.0117465783269 0.01079121 0.089828491
0.0117465783269 0.01093527 0.089039691
0.0117465783269 0.011 0.088241979
0.0118643840269 0.011 0.088234931
0.0125095457269 0.010971818 0.088808045
0.0135680468269 0.011 0.088036768
0.0127813521269 0.011 0.08818005
0.0124594535269 0.011 0.088199317
0.0148496454559 0.010971818 0.088303402
0.0148192014519 0.011 0.087678097
0.0146464308669 0.011 0.087731801
0.0174668332269 0.011 0.086080536
0.0169818023269 0.010971818 0.087214991
0.0183037309269 0.011 0.085221656
0.0187631355269 0.010971818 0.085615754
0.0181843148269 0.011 0.085369669
0.0175222730269 0.011 0.086025611
0.0231063658269 0.0052475878 0.089344449
0.0217485124269 0.0052475878 0.090732746
0.0217165792269 0.0091401283 0.088151306
0.0199644597269 0.0098452503 0.088745557
0.0210801115269 0.0098452503 0.087604895
0.0203611361269 0.010395652 0.086987644
0.0186445987269 0.010774939 0.087275416
0.0208204345269 0.00465 0.091498815
0.0202223913269 0.0052475878 0.091933616
0.0216169873269 0.0063255937 0.090586245
0.0201109344269 0.0063255937 0.091771327
0.0213636042269 0.0073536984 0.09030401
0.0209959088269 0.0083012832 0.089894451
0.0195846216269 0.0083012832 0.09100496
0.0205248514269 0.0091401283 0.089369759
0.0193314248269 0.010395652 0.088040449
0.0181741094269 0.010395652 0.088951111
0.0184641605269 0.0063255937 0.092751503
0.0198962124269 0.0073536984 0.091458671
0.0182917131269 0.0073536984 0.092413679
0.0191854382269 0.0091401283 0.090423711
0.0187105531269 0.0098452503 0.08973223
0.0169086562269 0.010395652 0.08970432
0.0175920812269 0.010774939 0.088103622
0.0167043725269 0.0063255937 0.093510285
0.0165770998269 0.0073536984 0.093152985
0.0180414686269 0.0083012832 0.09192346
0.0177208757269 0.0091401283 0.091295429
0.0173394860269 0.0098452503 0.090548299
0.0158743256269 0.0098452503 0.091180049
0.0117465783269 0.010971818 0.088839568
0.0136959938269 0.010971818 0.088631764
0.0139232402669 0.010774939 0.089685544
0.0159510908269 0.010971818 0.08782848
0.0164412180269 0.010774939 0.088788621
0.0179244367269 0.010971818 0.086473256
0.0196418365269 0.010880348 0.085310094
0.0307907006269 -0.0103 0.04106101
0.0293343486269 -0.0103 0.04189479
0.0294583546269 -0.0103 0.041682955
0.0293407026269 -0.0103 0.041835353
0.0293857806269 -0.0103 0.041869111
0.0292477196269 -0.0103 0.041969765
0.0292714136269 -0.0103 0.041925106
0.0292281256269 -0.0103 0.04199551
0.0306901966269 -0.0103 0.04111601
0.0306481746269 -0.0103 0.041155238
0.0299783476269 -0.0103 0.041875109
0.0297179156269 -0.0103 0.041443925
0.0300970206269 -0.0103 0.041840971
0.0298441516269 -0.0103 0.041362088
0.0299744466269 -0.0103 0.041277617
0.0300022936269 -0.0103 0.041265283
0.0305864076269 -0.0103 0.04125173
0.0298557166269 -0.0103 0.041889623
0.0296855266269 -0.0103 0.04146928
0.0291904356269 -0.0103 0.043914974
0.0290816256269 -0.0103 0.042297263
0.0291904356269 -0.0103 0.042068984
0.0291688196269 -0.0103 0.042181496
0.0291722986269 -0.0103 0.043745082
0.0291688196269 -0.0103 0.043802463
0.0289954366269 -0.0103 0.042590588
0.0292379426269 -0.0103 0.042396616
0.0292761976269 -0.0103 0.042439524
0.0289759076269 -0.0103 0.043285578
0.0293585876269 -0.0103 0.043452449
0.0292761976269 -0.0103 0.043544434
0.0292379426269 -0.0103 0.043587342
0.0290473676269 -0.0103 0.043589152
0.0291852606269 -0.0103 0.04368908
0.0294737756269 -0.0103 0.043234903
0.0307958716269 -0.0103 0.044938996
0.0308463936269 -0.0103 0.044937186
0.0292296476269 -0.0103 0.043988347
0.0293910106269 -0.0103 0.044222564
0.0293408626269 -0.0103 0.044149775
0.0293857806269 -0.0103 0.044114843
0.0294407616269 -0.0103 0.044131622
0.0304926906269 -0.0103 0.044898178
0.0306901966269 -0.0103 0.044867948
0.0307381486269 -0.0103 0.04489965
0.0294977686269 -0.0103 0.044139031
0.0295552126269 -0.0103 0.044136867
0.0298557166269 -0.0103 0.044094335
0.0299783476269 -0.0103 0.044108849
0.0300970206269 -0.0103 0.044142988
0.0305299116269 -0.0103 0.044560302
0.0305864076269 -0.0103 0.044732228
0.0298397606269 -0.0103 0.044621911
0.0310114836269 -0.0103 0.041044962
0.0325194556269 -0.0103 0.041928656
0.0324730046269 -0.0103 0.04189479
0.0324664926269 -0.0103 0.041834183
0.0325777076269 -0.0103 0.041995611
0.0311986686269 -0.0103 0.041070163
0.0311171596269 -0.0103 0.04111601
0.0316514516269 -0.0103 0.041191053
0.0314971536269 -0.0103 0.041717887
0.0318055486269 -0.0103 0.041269723
0.0319237406269 -0.0103 0.041330062
0.0315987386269 -0.0103 0.041788097
0.0317103336269 -0.0103 0.041840971
0.0323665916269 -0.0103 0.041852336
0.0322054136269 -0.0103 0.04154009
0.0321745006269 -0.0103 0.041512955
0.0320750026269 -0.0103 0.041884128
0.0324666536269 -0.0103 0.044148605
0.0325359396269 -0.0103 0.044058848
0.0325596366269 -0.0103 0.044014193
0.0311984566269 -0.0103 0.044918444
0.0309609616269 -0.0103 0.044937186
0.0309036776269 -0.0103 0.04494198
0.0310692076269 -0.0103 0.04489965
0.0311591806269 -0.0103 0.04482872
0.0323490006269 -0.0103 0.044301003
0.0317103336269 -0.0103 0.044142988
0.0312209456269 -0.0103 0.044732228
0.0315491366269 -0.0103 0.044832055
0.0312389766269 -0.0103 0.044677645
0.0319516396269 -0.0103 0.044094335
0.0321218296269 -0.0103 0.044514678
0.0321958576269 -0.0103 0.044125192
0.0318050606269 -0.0103 0.044718675
0.0315987386269 -0.0103 0.044195861
0.0326437456269 -0.0103 0.042111833
0.0326169206269 -0.0103 0.043914974
0.0327257286269 -0.0103 0.043686695
0.0326385346269 -0.0103 0.042181496
0.0326220946269 -0.0103 0.042294879
0.0326350546269 -0.0103 0.042238876
0.0326350546269 -0.0103 0.043745082
0.0328119166269 -0.0103 0.04339337
0.0325694116269 -0.0103 0.043587342
0.0325311566269 -0.0103 0.043544434
0.0326000076269 -0.0103 0.042347953
0.0325311566269 -0.0103 0.042439524
0.0324487676269 -0.0103 0.042531509
0.0323823276269 -0.0103 0.042635597
0.0323823276269 -0.0103 0.043348361
0.0328529736269 -0.0103 0.043044422
0.0323038096269 -0.0103 0.042868897
0.0323038096269 -0.0103 0.043115061
0.0324487676269 -0.0103 0.043452449
-0.0322093023731 -0.0103 0.04106101
-0.0337285873731 -0.0103 0.041925106
-0.0336592963731 -0.0103 0.041835353
-0.0336656523731 -0.0103 0.04189479
-0.0337120993731 -0.0103 0.041928656
-0.0337850703731 -0.0103 0.042016979
-0.0322618513731 -0.0103 0.041084308
-0.0323098023731 -0.0103 0.04111601
-0.0335416443731 -0.0103 0.041682955
-0.0330216533731 -0.0103 0.041875109
-0.0331442823731 -0.0103 0.041889623
-0.0333885053731 -0.0103 0.041858766
-0.0323518243731 -0.0103 0.041155238
-0.0327028283731 -0.0103 0.041138697
-0.0327417803731 -0.0103 0.041151904
-0.0331558463731 -0.0103 0.041362088
-0.0330255503731 -0.0103 0.041277617
-0.0327913863731 -0.0103 0.041788097
-0.0329977073731 -0.0103 0.041265283
-0.0339526333731 -0.0103 0.043589152
-0.0337926543731 -0.0103 0.043636005
-0.0338277023731 -0.0103 0.042238876
-0.0338147383731 -0.0103 0.042294879
-0.0338147383731 -0.0103 0.04368908
-0.0338277023731 -0.0103 0.043745082
-0.0338311813731 -0.0103 0.043802463
-0.0338250793731 -0.0103 0.043859623
-0.0337926543731 -0.0103 0.042347953
-0.0340045643731 -0.0103 0.042590588
-0.0337620553731 -0.0103 0.043587342
-0.0337238033731 -0.0103 0.043544434
-0.0336414153731 -0.0103 0.043452449
-0.0340240923731 -0.0103 0.043285578
-0.0335749713731 -0.0103 0.043348361
-0.0340298583731 -0.0103 0.043244854
-0.0335262213731 -0.0103 0.042749055
-0.0340456163731 -0.0103 0.042939536
-0.0321536083731 -0.0103 0.044937186
-0.0322041313731 -0.0103 0.044938996
-0.0337850703731 -0.0103 0.043966979
-0.0324135893731 -0.0103 0.044732228
-0.0325073103731 -0.0103 0.044898178
-0.0323518243731 -0.0103 0.04482872
-0.0323098023731 -0.0103 0.044867948
-0.0336089903731 -0.0103 0.044222564
-0.0336591403731 -0.0103 0.044149775
-0.0337120993731 -0.0103 0.044055302
-0.0336142203731 -0.0103 0.044114843
-0.0330216533731 -0.0103 0.044108849
-0.0326008973731 -0.0103 0.044351771
-0.0325270093731 -0.0103 0.044450719
-0.0328059443731 -0.0103 0.044808276
-0.0324316193731 -0.0103 0.044677645
-0.0328440983731 -0.0103 0.044792905
-0.0329981913731 -0.0103 0.044714235
-0.0331163873731 -0.0103 0.044653896
-0.0333980573731 -0.0103 0.044443868
-0.0333885053731 -0.0103 0.044125192
-0.0332676493731 -0.0103 0.04409983
-0.0319885193731 -0.0103 0.041044962
-0.0304075723731 -0.0103 0.042016979
-0.0319307913731 -0.0103 0.041084308
-0.0320390413731 -0.0103 0.041046772
-0.0307945853731 -0.0103 0.04154009
-0.0318408183731 -0.0103 0.041155238
-0.0305335103731 -0.0103 0.041834183
-0.0305269943731 -0.0103 0.04189479
-0.0305784253731 -0.0103 0.041869111
-0.0309249973731 -0.0103 0.041884128
-0.0310324083731 -0.0103 0.041362047
-0.0312896653731 -0.0103 0.041840971
-0.0314012643731 -0.0103 0.041788097
-0.0315028453731 -0.0103 0.041717887
-0.0310762553731 -0.0103 0.041330062
-0.0315917533731 -0.0103 0.041632183
-0.0313485513731 -0.0103 0.041191053
-0.0305269943731 -0.0103 0.044089168
-0.0304805433731 -0.0103 0.044055302
-0.0318015463731 -0.0103 0.044918444
-0.0320390413731 -0.0103 0.044937186
-0.0308781733731 -0.0103 0.044514678
-0.0306904113731 -0.0103 0.044139031
-0.0306334073731 -0.0103 0.044131622
-0.0314012643731 -0.0103 0.044195861
-0.0311709923731 -0.0103 0.044108849
-0.0315028453731 -0.0103 0.044266067
-0.0314898183731 -0.0103 0.044845261
-0.0317610223731 -0.0103 0.044677645
-0.0311949393731 -0.0103 0.044718675
-0.0316656333731 -0.0103 0.044450719
-0.0310483603731 -0.0103 0.044094335
-0.0309249973731 -0.0103 0.04409983
-0.0303562533731 -0.0103 0.042111833
-0.0303614643731 -0.0103 0.043802463
-0.0303649443731 -0.0103 0.043745082
-0.0302742703731 -0.0103 0.043686695
-0.0302400133731 -0.0103 0.042394806
-0.0303614643731 -0.0103 0.042181496
-0.0301880823731 -0.0103 0.04339337
-0.0304305873731 -0.0103 0.043587342
-0.0301800393731 -0.0103 0.043353032
-0.0304688423731 -0.0103 0.043544434
-0.0301772753731 -0.0103 0.043327209
-0.0301627873731 -0.0103 0.042739104
-0.0305512343731 -0.0103 0.042531509
-0.0303779043731 -0.0103 0.042294879
-0.0301470263731 -0.0103 0.043044422
-0.0158614723731 -0.012 0.058964286
-0.0132963233731 -0.012 0.07351198
-0.0145986853731 -0.012 0.073398039
-0.0158614723731 -0.012 0.073059678
-0.0203440173731 -0.012 0.063446827
-0.0197915123731 -0.012 0.06226198
-0.0181172293731 -0.012 0.06026664
-0.00954632337306 -0.012 0.072507173
-0.00954632337306 -0.012 0.059516784
-0.00847541637306 -0.012 0.06026664
-0.00755098937306 -0.012 0.061191071
-0.00680113237306 -0.012 0.06226198
-0.00755098937306 -0.012 0.070832886
-0.0203391113731 -0.01098 0.048013147
-0.0195945973731 -0.01098 0.048120633
-0.0161067033731 -0.01098 0.049998198
-0.0159313513731 -0.01098 0.049242776
-0.0209203903731 -0.01098 0.048659015
-0.0209353813731 -0.01098 0.048533291
-0.0206255933731 -0.01098 0.048068278
-0.0162304423731 -0.01098 0.050540168
-0.0198885453731 -0.01098 0.051518559
-0.0209172433731 -0.01098 0.04836423
-0.0208619563731 -0.01098 0.048243977
-0.0160306563731 -0.01098 0.048778858
-0.0159409723731 -0.01098 0.048888907
-0.0203423193731 -0.01098 0.051368363
-0.0201446323731 -0.01098 0.051509768
-0.0202005713731 -0.01098 0.051487979
-0.0186377713731 -0.01098 0.051888127
-0.0144912363731 -0.01098 0.051233523
-0.0143502823731 -0.01098 0.05124544
-0.0141949133731 -0.01098 0.051280841
-0.0140743483731 -0.01098 0.05132756
-0.0139139283731 -0.01098 0.051435165
-0.0138223513731 -0.01098 0.0515524
-0.0143702763731 -0.01098 0.054398406
-0.0143915513731 -0.01098 0.054464918
-0.0185631313731 -0.01098 0.053669259
-0.0184561183731 -0.01098 0.051833548
-0.0163225513731 -0.01098 0.051493045
-0.0154080883731 -0.01098 0.05135414
-0.0137623763731 -0.01098 0.051778324
-0.0137664143731 -0.01098 0.0518828
-0.0149508163731 -0.01098 0.054704476
-0.0186715893731 -0.01098 0.053126454
-0.0181343283731 -0.01098 0.054130729
-0.0188217853731 -0.01098 0.05211458
-0.0183807483731 -0.01098 0.054005768
-0.0184841663731 -0.01098 0.053879358
-0.0147474433731 -0.01098 0.054715138
-0.0144533553731 -0.01098 0.054571912
-0.0144922423731 -0.01098 0.054613125
-0.0145982923731 -0.01098 0.054680154
-0.0145402463731 -0.01098 0.054649781
-0.0147180223731 -0.01098 0.055504225
-0.0194962643731 -0.01098 0.05616143
-0.0148775083731 -0.01098 0.055278402
-0.0147682803731 -0.01098 0.055372108
-0.0151675293731 -0.01098 0.057245225
-0.0156293383731 -0.01098 0.05747436
-0.0196835793731 -0.01098 0.055168878
-0.0194770943731 -0.01098 0.054623596
-0.0164857563731 -0.01098 0.05763787
-0.0156651513731 -0.01098 0.057482995
-0.0152206163731 -0.01098 0.057296738
-0.0153015653731 -0.01098 0.057353906
-0.0187683723731 -0.01098 0.05804133
-0.0186598993731 -0.01098 0.058031332
-0.0191131633731 -0.01098 0.057879578
-0.0196981153731 -0.01098 0.055044089
-0.0196944273731 -0.01098 0.054950744
-0.0195844643731 -0.01098 0.054707211
-0.0196565563731 -0.01098 0.054813713
-0.0196242283731 -0.01098 0.05475663
-0.0188500083731 -0.01098 0.058036242
-0.0189159273731 -0.01098 0.058021653
-0.0190708663731 -0.01098 0.057928886
-0.0190241173731 -0.01098 0.057968494
0.0175682617269 -0.01098 0.052344691
0.0190827878269 -0.01098 0.050429065
0.0197432110269 -0.01098 0.051101077
0.0197089998269 -0.01098 0.051128391
0.0196024174269 -0.01098 0.051145345
0.0191127857269 -0.01098 0.050434757
0.0191693132269 -0.01098 0.05129138
0.0183878945269 -0.01098 0.053439368
0.0170750333269 -0.01098 0.051230624
0.0173683682269 -0.01098 0.051285431
0.0179786658269 -0.01098 0.052669089
0.0179873103269 -0.01098 0.05267863
0.0181538010269 -0.01098 0.05289733
0.0173224391269 -0.01098 0.052234665
0.0170434558269 -0.01098 0.052163169
0.0182077041269 -0.01098 0.051715322
0.0186274064269 -0.01098 0.05063108
0.0188832668269 -0.01098 0.051394533
0.0190470380269 -0.01098 0.050439116
0.0190715188269 -0.01098 0.050430898
0.0184440402269 -0.01098 0.053764082
0.0184533627269 -0.01098 0.053967115
0.0195151915269 -0.01098 0.053870887
0.0184533627269 -0.01098 0.053973984
0.0195178849269 -0.01098 0.05398757
0.0195178849269 -0.01098 0.053994443
0.0184258608269 -0.01098 0.054308314
0.0182203849269 -0.01098 0.054904863
0.0191792523269 -0.01098 0.055348825
0.0180551981269 -0.01098 0.055153161
0.0189406773269 -0.01098 0.055706684
0.0186517382269 -0.01098 0.056014124
0.0168660482269 -0.01098 0.055777945
0.0175096294269 -0.01098 0.056613602
0.0170472631269 -0.01098 0.056687422
0.0167406177269 -0.01098 0.055782314
0.0157796213369 -0.01098 0.056526177
0.0153239289269 -0.01098 0.055037156
0.0141570087469 -0.01098 0.055019934
0.0151824386769 -0.01098 0.054784693
0.0139494979769 -0.01098 0.054133754
0.0150190912169 -0.01098 0.054183822
0.0150345912169 -0.01098 0.05362862
0.014805992504 -0.01098 0.051946659
0.0155903169869 -0.01098 0.052581009
0.0158157734269 -0.01098 0.05240621
0.0155608834669 -0.01098 0.051451769
0.0166113725269 -0.01098 0.052142967
0.0169006450269 -0.01098 0.051220432
0.0132533017269 -0.01098 0.051346764
0.0132401030269 -0.01098 0.05135997
0.0120454779269 -0.01098 0.05658076
0.0132464323269 -0.01098 0.05662841
0.0120663767269 -0.01098 0.056558277
0.0120386084269 -0.01098 0.051353481
0.0120476246269 -0.01098 0.051361393
0.0120588582269 -0.01098 0.051374339
0.0132274780269 -0.01098 0.051377717
0.0132164782269 -0.01098 0.051399916
0.0132179217269 -0.01098 0.056545481
0.0120808840269 -0.01098 0.051417939
0.0120696475269 -0.01098 0.051391691
0.0132019896269 -0.01098 0.051445961
0.0120938917269 -0.01098 0.051466208
0.0121161150269 -0.01098 0.051662575
0.0131593229269 -0.01098 0.052468784
0.0121295847269 -0.01098 0.055889804
0.0131761528269 -0.01098 0.056310557
0.0114038516269 -0.01098 0.055666231
0.0114513891269 -0.01098 0.055666231
0.0100595955269 -0.01098 0.051305819
0.0114513891269 -0.01098 0.05662841
0.00752411072694 -0.01098 0.055687912
0.0100227924269 -0.01098 0.051370639
0.0100288236269 -0.01098 0.051362567
0.00784393152694 -0.01098 0.055772357
0.00796434782694 -0.01098 0.055775441
0.00886099452694 -0.01098 0.051359173
0.00885219912694 -0.01098 0.051351517
0.00884490222694 -0.01098 0.051305819
0.0100144049269 -0.01098 0.051386435
0.0100033091269 -0.01098 0.051419005
0.00892240682694 -0.01098 0.051652107
0.00894038972694 -0.01098 0.053660028
0.00996436032694 -0.01098 0.051951714
0.00894038972694 -0.01098 0.055775441
0.00995710062694 -0.01098 0.053660028
0.00273045862694 -0.01098 0.053623017
0.00167612062694 -0.01098 0.053486135
0.00196322862694 -0.01098 0.052646931
0.00293665162694 -0.01098 0.05302611
0.00310095062694 -0.01098 0.052780539
0.00328811362694 -0.01098 0.052581944
0.00220334162694 -0.01098 0.052278146
0.00250459362694 -0.01098 0.051949453
0.00285809362694 -0.01098 0.051673077
0.00375598062694 -0.01098 0.052285183
0.00325791862694 -0.01098 0.051455814
0.00402239162694 -0.01098 0.052198898
0.00369577162694 -0.01098 0.051305186
0.00430958262694 -0.01098 0.052156039
0.00440861062694 -0.01098 0.051217161
0.00491349152694 -0.01098 0.051258631
0.00501301552694 -0.01098 0.052247301
0.00547402762694 -0.01098 0.052500837
0.00566428102694 -0.01098 0.052678172
0.00675933752694 -0.01098 0.052459873
0.00596485512694 -0.01098 0.053139649
0.00711489552694 -0.01098 0.053288475
0.00613509432694 -0.01098 0.053967115
0.00719961742694 -0.01098 0.054001313
0.00715934052694 -0.01098 0.054491483
0.00590286902694 -0.01098 0.054902516
0.00704284932694 -0.01098 0.054946445
0.00573841612694 -0.01098 0.055149827
0.00686187332694 -0.01098 0.055351105
0.00555708952694 -0.01098 0.055344407
0.00533588172694 -0.01098 0.055515066
0.00483342022694 -0.01098 0.05572924
0.00443608862694 -0.01098 0.055775441
0.00447703162694 -0.01098 0.056696679
0.00336583562694 -0.01098 0.055414833
0.00319061862694 -0.01098 0.055254277
0.00301913562694 -0.01098 0.055040207
0.00232271562694 -0.01098 0.055777036
0.00287948962694 -0.01098 0.054792382
0.00185303762694 -0.01098 0.055035464
0.00171447962694 -0.01098 0.054609872
0.00271581662694 -0.01098 0.054197494
-0.00217005437306 -0.01098 0.056608073
-0.00215349637306 -0.01098 0.056551572
0.00061943562694 -0.01098 0.056034107
-0.00031933437306 -0.01098 0.055614591
0.00049101662694 -0.01098 0.056183442
2.05436269401e-05 -0.01098 0.054083198
0.00018157962694 -0.01098 0.05641029
-0.00058123137306 -0.01098 0.055763938
-0.00070514037306 -0.01098 0.05579171
0.00107819762694 -0.01098 0.052807007
-0.00217692437306 -0.01098 0.051326208
-0.00113064837306 -0.01098 0.052187465
-0.00113174937306 -0.01098 0.052192491
0.00107819762694 -0.01098 0.052813876
3.21566269401e-05 -0.01098 0.053029425
-0.00113250537306 -0.01098 0.052201107
-0.00013973837306 -0.01098 0.055063996
0.00085987962694 -0.01098 0.055229634
-0.00017086237306 -0.01098 0.055374045
0.00079649162694 -0.01098 0.055677302
-0.00211918637306 -0.01098 0.056446888
-0.00027081937306 -0.01098 0.052322794
0.00056150762694 -0.01098 0.051723845
-4.36453730599e-05 -0.01098 0.052568205
-0.00215242437306 -0.01098 0.051385432
-0.00215848237306 -0.01098 0.051378418
-0.00216425437306 -0.01098 0.051373538
-0.00208816737306 -0.01098 0.053660177
-0.00113273437306 -0.01098 0.053632807
-0.00103814037306 -0.01098 0.054452557
-0.00100993937306 -0.01098 0.053642198
-0.00094849137306 -0.01098 0.0544517
-0.00088693837306 -0.01098 0.053646438
-0.00075941137306 -0.01098 0.054465596
-0.00058687137306 -0.01098 0.054506231
0.00073308262694 -0.01098 0.05188939
0.00087559562694 -0.01098 0.052082982
-0.00039354537306 -0.01098 0.051339805
-0.00038201837306 -0.01098 0.052261021
0.00038216262694 -0.01098 0.051599182
0.00049039362694 -0.01098 0.054356165
-0.00024244337306 -0.01098 0.054768257
-0.00030791837306 -0.01098 0.054685675
-0.00041352637306 -0.01098 0.056597587
-0.00100638737306 -0.01098 0.055795498
-0.00098957137306 -0.01098 0.056642149
0.00082247762694 -0.01098 0.053594477
0.00069048062694 -0.01098 0.053742237
-9.20563730599e-05 -0.01098 0.053322531
0.00014426462694 -0.01098 0.054054283
-0.00036279437306 -0.01098 0.053542845
2.05436269401e-05 -0.01098 0.054096784
-0.00213678937306 -0.01098 0.051416986
-0.00144827037306 -0.01098 0.051298801
-0.00192770937306 -0.01098 0.051314518
-0.00112929837306 -0.01098 0.05218406
-0.00734949337306 -0.01098 0.053623002
-0.00811676037306 -0.01098 0.052647009
-0.00697899137306 -0.01098 0.052780502
-0.00679189737306 -0.01098 0.052581973
-0.00656961337306 -0.01098 0.052413221
-0.00757538737306 -0.01098 0.051949501
-0.00722187237306 -0.01098 0.051673103
-0.00605766737306 -0.01098 0.052198913
-0.00516636937306 -0.01098 0.051258642
-0.00469811837306 -0.01098 0.05137825
-0.00390940937306 -0.01098 0.051810239
-0.00332061237306 -0.01098 0.052459832
-0.00401449837306 -0.01098 0.053424485
-0.00296510637306 -0.01098 0.053288382
-0.00394490037306 -0.01098 0.053967115
-0.00394490037306 -0.01098 0.053973984
-0.00303716237306 -0.01098 0.054946534
-0.00417715537306 -0.01098 0.054902628
-0.00345590437306 -0.01098 0.055707242
-0.00452275637306 -0.01098 0.055344321
-0.00374374737306 -0.01098 0.056012969
-0.00446249737306 -0.01098 0.056470443
-0.00488760237306 -0.01098 0.056611974
-0.00535549637306 -0.01098 0.056686953
-0.00564390637306 -0.01098 0.055775441
-0.00560296237306 -0.01098 0.056696679
-0.00623614937306 -0.01098 0.055677362
-0.00648942037306 -0.01098 0.055564258
-0.00706082837306 -0.01098 0.05504021
-0.00802309637306 -0.01098 0.055425983
-0.00822692237306 -0.01098 0.055035442
-0.00736413937306 -0.01098 0.054197494
-0.0112259673731 -0.01098 0.051351078
-0.0123522003731 -0.01098 0.05657389
-0.0123522003731 -0.01098 0.051305763
-0.0123398513731 -0.01098 0.051355522
-0.00979088537306 -0.01098 0.056323249
-0.00997925037306 -0.01098 0.056434046
-0.0101889583731 -0.01098 0.056519303
-0.0107632413731 -0.01098 0.055766683
-0.0102799673731 -0.01098 0.055404823
-0.0102075173731 -0.01098 0.055174045
-0.0123267793731 -0.01098 0.051373336
-0.00847621337306 -0.01098 0.051305763
-0.0104905093731 -0.01098 0.054352086
-0.0123464543731 -0.01098 0.056571458
-0.00975906737306 -0.01098 0.053858008
-0.0103186263731 -0.01098 0.054547161
-0.0101971053731 -0.01098 0.054958533
-0.0101958273731 -0.01098 0.055011153
-0.0105847613731 -0.01098 0.054287899
-0.0110284453731 -0.01098 0.055795956
-0.0111090673731 -0.01098 0.056648169
-0.0111851273731 -0.01098 0.055788122
-0.0123078923731 -0.01098 0.051430687
-0.0112702033731 -0.01098 0.051474921
-0.0112965353731 -0.01098 0.052017201
-0.00951750037306 -0.01098 0.051305946
-0.00880583237306 -0.01098 0.051732037
-0.0101548713731 -0.01098 0.053619068
-0.00971811137306 -0.01098 0.051333133
-0.0123141953731 -0.01098 0.056522466
-0.0123016673731 -0.01098 0.056466378
-0.0122703003731 -0.01098 0.054410744
0.0231277471269 0.00465 0.089362808
0.0224592121269 0.00465 0.090046331
0.0208204345269 -0.00465 0.091498815
0.0217673400269 0.00465 0.090753719
0.0202383449269 0.00465 0.091956846
0.0189892271269 -0.00465 0.092700332
0.0189892271269 0.00465 0.092700332
0.0185664868269 -0.00465 0.092951953
0.0170033605269 0.00465 0.09362594
0.0167798916269 0.00465 0.093722291
0.0149086177369 0.00465 0.094254911
0.0149036770669 -0.01035224 0.090591982
0.0149036770669 -0.0099491188 0.091323428
0.0149036770669 0.0078023416 0.093397886
0.0149036770669 0.008295224 0.0930629
0.0149036770669 0.0091205901 0.092367239
0.0149036770669 -0.0091385189 0.092345275
0.0149036770669 0.0098384088 0.091475442
0.0149036770669 0.0065897675 0.093945339
0.0149036770669 0.0073658703 0.09363129
0.0149036770669 -0.0062987655 0.094033122
0.0149036770669 -0.0054845507 0.094199628
0.0149036770669 -0.0052468479 0.094215676
0.0149036770669 -0.00465 0.094255976
0.0149036770669 -0.0082996078 0.093070045
0.0149036770669 0.0050870366 0.094232023
0.0149036770669 -0.0074837659 0.093572572
0.0149036770669 -0.0082006091 0.093143657
0.0149036770669 -0.0073506646 0.093629703
0.0149036770669 0.0052473824 0.094223231
0.0149036770669 0.0053285607 0.094218783
0.0185988670269 -0.012 0.069761984
0.00635834352694 -0.012 0.061191071
0.00728277062694 -0.012 0.06026664
0.00953852612694 -0.012 0.058964286
0.0121036771269 -0.012 0.05851198
0.0191513722269 -0.012 0.068577133
0.0146688282469 -0.012 0.073059678
0.00505598202694 -0.012 0.063446827
0.0191513722269 -0.012 0.063446827
0.0194897348269 -0.012 0.064709619
0.0178490108269 -0.012 0.061191071
0.00953852612694 -0.012 0.073059678
0.00835367702694 -0.012 0.072507173
0.00635834352694 -0.012 0.070832886
0.00471761962694 -0.012 0.067314342
0.00471761962694 -0.012 0.064709619
-0.0153175993731 0.010426373 0.090591982
-0.0153175993731 -0.010426373 0.090591982
-0.0145040773731 -0.01050382 0.090591982
0.0117465783269 -0.010549152 0.090591982
-0.0138521183731 0.010522706 0.090591982
0.0141246937169 -0.010426996 0.090591982
0.0133453229269 -0.01050179 0.090591982
-0.0160963223731 0.0085418466 0.09288992
-0.0160963223731 0.0082006091 0.093143657
-0.0160963223731 0.0091676051 0.092318721
-0.0160963223731 0.0073506646 0.093629703
-0.0160963223731 0.0062987655 0.094033122
-0.0160963223731 -0.008295224 0.0930629
-0.0160963223731 -0.0053285607 0.094218783
-0.0160963223731 -0.0057848566 0.094151385
-0.0160963223731 -0.0063226782 0.094013713
-0.0160963223731 -0.0084928656 0.092928581
-0.0160963223731 -0.0091205901 0.092367239
-0.0160963223731 -0.0098384088 0.091475442
-0.0160963223731 0.0052468479 0.094215676
-0.0160963223731 -0.0065897675 0.093945339
-0.0160963223731 -0.0073658703 0.09363129
-0.0250877273731 0.00465 0.088390492
-0.0236518553731 0.00465 0.090046331
-0.0229599873731 -0.00465 0.090753719
-0.0197591323731 0.00465 0.092951953
-0.0197591323731 -0.00465 0.092951953
-0.0181960043731 -0.00465 0.09362594
-0.0181960043731 0.00465 0.09362594
-0.0179725383731 0.00465 0.093722291
-0.0161012623731 0.00465 0.094254911
-0.0160963223731 0.00465 0.094255976
-0.0160963223731 -0.00465 0.094255976
-0.0235963223731 -0.023592371 0.0045919749
-0.0270159903731 -0.010196717 0.0045919749
-0.0271187893731 -0.013291779 0.0045919749
-0.0264349233731 -0.010438052 0.0045919749
-0.0266557653731 -0.013415845 0.0045919749
-0.0299778903731 -0.014625 0.0045919749
-0.0301804793731 -0.015059445 0.0045919749
-0.0303045463731 -0.015522468 0.0045919749
-0.0303463213731 -0.016000001 0.0045919749
-0.0264616333731 -0.023579348 0.0045919749
-0.0248881003731 -0.016477533 0.0045919749
-0.0248463253731 -0.016000001 0.0045919749
-0.0248881003731 -0.015522468 0.0045919749
-0.0238285383731 -0.013888481 0.0045919749
-0.0252147523731 -0.014625 0.0045919749
-0.0258286543731 -0.013893378 0.0045919749
-0.0254211453731 -0.011176965 0.0045919749
-0.0258988873731 -0.010767519 0.0045919749
-0.0316945373731 -0.0098199546 0.0045919749
-0.0289713243731 -0.01361843 0.0045919749
-0.0311730233731 -0.0099546677 0.0045919749
-0.0280738573731 -0.013291779 0.0045919749
-0.0306362983731 -0.0099999998 0.0045919749
-0.0275963233731 -0.01325 0.0045919749
-0.0276277123731 -0.010049486 0.0045919749
-0.0335946183731 -0.0080199651 0.0045919749
-0.0301804793731 -0.016940555 0.0045919749
-0.0297029453731 -0.017767666 0.0045919749
-0.0293639883731 -0.018106623 0.0045919749
-0.0285368773731 -0.018584155 0.0045919749
-0.0280738573731 -0.018708222 0.0045919749
-0.0332328473731 -0.012643458 0.0045919749
-0.0297029453731 -0.014232334 0.0045919749
-0.0333480933731 -0.0084988717 0.0045919749
-0.0293639883731 -0.013893378 0.0045919749
-0.0330247303731 -0.0089296438 0.0045919749
-0.0326336943731 -0.0093000783 0.0045919749
-0.0321860713731 -0.0095996773 0.0045919749
-0.0235477183731 -0.024147989 0.0045919749
-0.0275963233731 -0.018750001 0.0045919749
-0.0234033783731 -0.024686728 0.0045919749
-0.0275963233731 0.018750001 0.0045919749
-0.0332328473731 0.012643458 0.0045919749
-0.0280738573731 0.018708222 0.0045919749
-0.0289713243731 0.01838157 0.0045919749
-0.0293639883731 0.018106623 0.0045919749
-0.0291632143731 0.020222085 0.0045919749
-0.0314317523731 0.016558275 0.0045919749
-0.0297029453731 0.017767666 0.0045919749
-0.0301804793731 0.016940555 0.0045919749
-0.0303045463731 0.016477533 0.0045919749
-0.0303045463731 0.015522468 0.0045919749
-0.0266557653731 0.013415845 0.0045919749
-0.0262213223731 0.01838157 0.0045919749
-0.0264616333731 0.023579348 0.0045919749
-0.0271187893731 0.018708222 0.0045919749
-0.0264349233731 0.010438052 0.0045919749
-0.0271187893731 0.013291779 0.0045919749
-0.0270159903731 0.010196717 0.0045919749
-0.0280738573731 0.013291779 0.0045919749
-0.0289713243731 0.01361843 0.0045919749
-0.0316945373731 0.0098199546 0.0045919749
-0.0321860713731 0.0095996773 0.0045919749
-0.0326336943731 0.0093000783 0.0045919749
-0.0293639883731 0.013893378 0.0045919749
-0.0250121673731 0.015059445 0.0045919749
-0.0236548063731 0.01455005 0.0045919749
-0.0262213223731 0.01361843 0.0045919749
-0.0250135233731 0.011656262 0.0045919749
-0.0254211453731 0.011176965 0.0045919749
-0.0343859223731 0.0037766171 0.0045919749
-0.0345963263731 -3.6087233e-15 0.0045919749
-0.0343859223731 -0.0037766171 0.0045919749
-0.0248881003731 0.015522468 0.0045919749
-0.0248463253731 0.016000001 0.0045919749
-0.0235963223731 0.023592371 0.0045919749
-0.0248881003731 0.016477533 0.0045919749
-0.0254896973731 0.017767666 0.0045919749
-0.0235477183731 0.024147989 0.0045919749
-0.0231676903731 0.025192222 0.0045919749
0.0238195223269 0.016940555 0.0045919749
0.0264036776269 0.018750001 0.0045919749
0.0287852466269 0.017375 0.0045919749
0.0281713436269 0.018106623 0.0045919749
0.0266714966269 0.021942332 0.0045919749
0.0277786766269 0.01838157 0.0045919749
0.0236954553269 0.016477533 0.0045919749
0.0311999616269 0.014628612 0.0045919749
0.0287852466269 0.014625 0.0045919749
0.0291536776269 0.016000001 0.0045919749
0.0291118986269 0.016477533 0.0045919749
0.0289878316269 0.016940555 0.0045919749
0.0223550716269 0.024147989 0.0045919749
0.0222107334269 0.024686728 0.0045919749
0.0242970543269 0.017767666 0.0045919749
0.0240221074269 0.017375 0.0045919749
0.0252422756269 0.010438052 0.0045919749
0.0259261446269 0.013291779 0.0045919749
0.0314410506269 0.0093000783 0.0045919749
0.0281713436269 0.013893378 0.0045919749
0.0224036773269 0.023592371 0.0045919749
0.0309934276269 0.0095996773 0.0045919749
0.0277786766269 0.01361843 0.0045919749
0.0273442316269 0.013415845 0.0045919749
0.0268812096269 0.013291779 0.0045919749
0.0294436506269 0.0099999998 0.0045919749
0.0270623116269 0.0099999998 0.0045919749
0.0258233446269 0.010196717 0.0045919749
0.0259261446269 0.018708222 0.0045919749
0.0254631226269 0.018584155 0.0045919749
0.0237683648269 0.025126917 0.0045919749
0.0236536780269 0.016000001 0.0045919749
0.0224036773269 0.015231546 0.0045919749
0.0236954553269 0.015522468 0.0045919749
0.0238195223269 0.015059445 0.0045919749
0.0240221074269 0.014625 0.0045919749
0.0226358952269 0.013888481 0.0045919749
0.0242970543269 0.014232334 0.0045919749
0.0246360110269 0.013893378 0.0045919749
0.0247062420269 0.010767519 0.0045919749
0.0219750454269 0.025192222 0.0045919749
0.0204958891269 0.027930602 0.0045919749
0.0212608197269 0.026043527 0.0045919749
0.0177875900269 0.028601255 0.0045919749
0.0130461830269 0.032231692 0.0045919749
0.0140184773069 0.030698659 0.0045919749
0.00898188202694 0.033663899 0.0045919749
0.00477238462694 0.034585793 0.0045919749
0.00156037062694 0.033931531 0.0045919749
-0.00059632237306 0.033931531 0.0045919749
-0.00382571537306 0.034850698 0.0045919749
-0.00808398137306 0.03418969 0.0045919749
-0.00703169137306 0.033385415 0.0045919749
-0.0152111223731 0.030698659 0.0045919749
-0.0199290983731 0.029176084 0.0045919749
-0.0189802373731 0.028601255 0.0045919749
-0.0224534673731 0.026043527 0.0045919749
0.0247062420269 -0.010767519 0.0045919749
0.0236954553269 -0.015522468 0.0045919749
0.0224036773269 -0.015231546 0.0045919749
0.0238195223269 -0.015059445 0.0045919749
0.0224621588269 -0.01455005 0.0045919749
0.0242970543269 -0.014232334 0.0045919749
0.0226358952269 -0.013888481 0.0045919749
0.0229198070269 -0.013266185 0.0045919749
0.0234934551269 -0.012193548 0.0045919749
0.0238208765269 -0.011656262 0.0045919749
0.0223550716269 -0.024147989 0.0045919749
0.0242970543269 -0.017767666 0.0045919749
0.0224036773269 -0.023592371 0.0045919749
0.0289878316269 -0.016940555 0.0045919749
0.0321554466269 -0.0084988717 0.0045919749
0.0291612776269 -0.018425126 0.0045919749
0.0281713436269 -0.018106623 0.0045919749
0.0285102996269 -0.017767666 0.0045919749
0.0281713436269 -0.013893378 0.0045919749
0.0246360110269 -0.018106623 0.0045919749
0.0250286766269 -0.01838157 0.0045919749
0.0222107334269 -0.024686728 0.0045919749
0.0237683648269 -0.025126917 0.0045919749
0.0259261446269 -0.018708222 0.0045919749
0.0266714966269 -0.021942332 0.0045919749
0.0258233446269 -0.010196717 0.0045919749
0.0264036776269 -0.01325 0.0045919749
0.0273442316269 -0.013415845 0.0045919749
0.0277786766269 -0.01361843 0.0045919749
0.0299803756269 -0.0099546677 0.0045919749
0.0305018926269 -0.0098199546 0.0045919749
0.0314410506269 -0.0093000783 0.0045919749
0.0287852466269 -0.014625 0.0045919749
0.0324019746269 -0.0080199651 0.0045919749
0.0338077356269 -0.0064312331 0.0045919749
0.0325646876269 -0.0075064935 0.0045919749
0.0331932786269 -0.0037766171 0.0045919749
0.0343372926269 8.1685782e-15 0.0045919749
0.0334036796269 1.9922755e-14 0.0045919749
0.0325646876269 0.0075064935 0.0045919749
-0.0231676903731 -0.025192222 0.0045919749
-0.0233679623731 -0.026579171 0.0045919749
-0.0189802373731 -0.028601255 0.0045919749
-0.0161971663731 -0.031330716 0.0045919749
-0.0122287413731 -0.033010405 0.0045919749
-0.00703169137306 -0.033385415 0.0045919749
-0.00382571537306 -0.034850698 0.0045919749
-0.00059632237306 -0.034950193 0.0045919749
-0.00059632237306 -0.033931531 0.0045919749
0.00583904552694 -0.033385415 0.0045919749
0.00477238462694 -0.034585793 0.0045919749
0.0140184773069 -0.030698659 0.0045919749
0.0130461830269 -0.032231692 0.0045919749
0.0169036774269 -0.03031089 0.0045919749
0.0204958891269 -0.027930602 0.0045919749
0.0219750454269 -0.025192222 0.0045919749
-0.0357049653731 0.011 0.062898956
-0.0420453943731 0.0077508814 0.061678488
-0.0364153703731 0.011 0.061419766
-0.0366080423731 0.011 0.060600739
-0.0366703893731 0.011 0.059849408
-0.0372285713731 0.010975899 0.059863437
-0.0394937493731 0.010340178 0.059919041
-0.0399260323731 0.010020174 0.061301541
-0.0410260283731 0.0092747705 0.059956651
-0.0425266943731 0.0052492269 0.056413986
-0.0412135523731 0.0052296282 0.06602148
-0.0412285873731 0.0047138277 0.066031039
-0.0416544173731 0.0052887993 0.065228947
-0.0416786103731 0.0047761416 0.065241247
-0.0417194463731 0.0047817961 0.06516958
-0.0420594093731 0.0048361248 0.064413048
-0.0420352243731 0.0053460742 0.064403027
-0.0426005593731 0.005452692 0.062691391
-0.0428228553731 0.0050000767 0.061817076
-0.0429510873731 0.0050498191 0.060915437
-0.0427849693731 0.0055020759 0.061810028
-0.0429536943731 0.0055931304 0.06000397
-0.0429355903731 0.0056339377 0.059101716
-0.0430092093731 0.0051136659 0.059648756
-0.0430108403731 0.0051122867 0.059678789
-0.0396157753731 0.0097366357 0.055758927
-0.0388836433731 0.0097568929 0.054521829
-0.0389014953731 0.0097432379 0.054510042
-0.0389476073731 0.009707965 0.054479592
-0.0381744823731 0.010601146 0.05642131
-0.0386732243731 0.010366945 0.0561921
-0.0380361033731 0.010358343 0.05508149
-0.0371169773731 0.010762705 0.05568843
-0.0371584323731 0.010904546 0.056888264
-0.0366546093731 0.010900339 0.055993747
-0.0369834033731 0.010976546 0.058000565
-0.0366238233731 0.011 0.058926795
-0.0366281893731 0.011 0.058994938
-0.0366491703731 0.010901958 0.055997338
-0.0361601283731 0.011 0.057346929
-0.0364469613731 0.011 0.058108505
-0.0364561923731 0.011 0.058151226
-0.0405479693731 0.0096820444 0.059944917
-0.0409083093731 0.0092414571 0.061476249
-0.0405693753731 0.0092041539 0.06295386
-0.0391118033731 0.00997678 0.06391684
-0.0393892103731 0.010327752 0.061206061
-0.0386184103731 0.010298416 0.063662231
-0.0381587543731 0.010149261 0.064929895
-0.0404351453731 0.0096566612 0.061392095
-0.0401116483731 0.0096282428 0.0627992
-0.0396181443731 0.0099996235 0.062632456
-0.0395783733731 0.0095966393 0.06415762
-0.0371383753731 0.010975492 0.060805734
-0.0388334563731 0.010576926 0.061107215
-0.0389343303731 0.010584598 0.059905309
-0.0373462833731 0.010617048 0.064341463
-0.0369099253731 0.010975039 0.061717402
-0.0365449433731 0.010974538 0.062592231
-0.0370621483731 0.01089498 0.062859133
-0.0380071943731 0.010762422 0.062088151
-0.0375852163731 0.010757321 0.06312906
-0.0370062243731 0.010729553 0.064095184
-0.0374555533731 0.01089712 0.061901759
-0.0376999473731 0.010899055 0.060905617
-0.0382675553731 0.010767025 0.061006565
-0.0385571743731 0.010568353 0.062273975
-0.0390970803731 0.010313854 0.062456395
-0.0381066973731 0.01055884 0.063398167
-0.0379570823731 0.010265374 0.064783834
-0.0416619133731 0.0076838201 0.063322999
-0.0418481703731 0.008331744 0.059976835
-0.0414614333731 0.0088223545 0.059967335
-0.0429032843731 0.0055490294 0.060910765
-0.0427975903731 0.0061103073 0.060900118
-0.0423507343731 0.0054007377 0.06355574
-0.0422610143731 0.005972458 0.063525423
-0.0419520383731 0.0059215627 0.064367764
-0.0413780833731 0.0076475018 0.064124465
-0.0419181613731 0.0071224868 0.063409582
-0.0413381703731 0.0087804385 0.061552707
-0.0417186863731 0.0082808398 0.061620381
-0.0413496663731 0.0082238717 0.063217498
-0.0407422883731 0.008160552 0.064758241
-0.0410327783731 0.0076093385 0.064908154
-0.0408548583731 0.0069919862 0.065800786
-0.0406954683731 0.0051665558 0.066767104
-0.0411446493731 0.0058129965 0.065979086
-0.0404200353731 0.006821828 0.066567622
-0.0406792263731 0.0069046216 0.05333614
-0.0415648693731 0.0068786396 0.054863174
-0.0408437053731 0.0063703391 0.053227525
-0.0408476163731 0.0063576414 0.053224944
-0.0420429803731 0.0052958238 0.055029187
-0.0417252433731 0.006334282 0.054789465
-0.0421916123731 0.0068341983 0.056510147
-0.0406662993731 0.0069466019 0.053344671
-0.0415782353731 0.005868189 0.06518963
-0.0414505923731 0.0064537833 0.065123759
-0.0418161173731 0.0065025846 0.064310148
-0.0425048643731 0.0060207904 0.062666856
-0.0425281693731 0.0066350847 0.061764356
-0.0426839313731 0.0060666949 0.061792057
-0.0426371123731 0.0066748457 0.060883958
-0.0426800503731 0.0067121414 0.059997249
-0.0428230863731 0.0061890944 0.059107449
-0.0422362183731 0.0052786814 0.055551529
-0.0424593343731 0.0052588889 0.05615462
-0.0421872833731 0.0057659973 0.055569682
-0.0424738703731 0.0057378504 0.056429371
-0.0420725373731 0.0063114311 0.055612203
-0.0428441493731 0.0061512422 0.06000128
-0.0402505343731 0.0079570943 0.053619217
-0.0404772783731 0.0074778148 0.05346949
-0.0413555233731 0.0074164798 0.054959379
-0.0405502493731 0.007323578 0.053421307
-0.0401265273731 0.00821923 0.053701106
-0.0407905753731 0.0084412964 0.055219021
-0.0399510663731 0.0084802732 0.053816967
-0.0396522753731 0.0089248177 0.054014273
-0.0392857073731 0.0093450695 0.054256331
-0.0396351913731 0.0089502307 0.054025553
-0.0396438783731 0.010067527 0.057239223
-0.0409187993731 0.0093033258 0.058450144
-0.0410050923731 0.0088885007 0.056849688
-0.0419725423731 0.0073769116 0.056572836
-0.0423446323731 0.007327179 0.058269013
-0.0418380593731 0.0057906937 0.054737616
-0.0414259013731 0.0058120284 0.053933337
-0.0413160203731 0.0063540149 0.05399435
