# .PCD v0.7 - Point Cloud Data file format
VERSION 0.7
FIELDS x y z
SIZE 4 4 4
TYPE F F F
COUNT 1 1 1
WIDTH 1290
HEIGHT 1
VIEWPOINT 0 0 0 1 0 0 0
POINTS 1290
DATA ascii
-0.0061539067 -0.036763441 0.039513096
-0.0030875637 -0.037146844 0.039513096
-0.0031038716 -0.037343048 0.03843509
0.0030875637 -0.037146844 0.039513096
3.3326732e-14 -0.03747182 0.03843509
0.0061539067 -0.036763441 0.039513096
0.0031038716 -0.037343048 0.03843509
0.0091779539 -0.036127362 0.039513096
0.0061864103 -0.036957618 0.03843509
0.015016458 -0.034116376 0.039513096
0.025308177 -0.027366353 0.039513096
0.027633205 -0.025308954 0.03843509
0.031055562 -0.020827083 0.038868204
-0.030668577 -0.020567557 0.040456861
-0.029178977 -0.022580443 0.040541198
-0.027208317 -0.024919802 0.040541198
-0.025050655 -0.02708789 0.040541198
-0.022720821 -0.029069802 0.040541198
-0.020442842 -0.031169077 0.039513096
-0.017609758 -0.032421991 0.040541198
-0.01486366 -0.033769228 0.040541198
-0.012015403 -0.034884371 0.040541198
-0.012138922 -0.035242982 0.039513096
-0.0091779539 -0.036127362 0.039513096
-0.0090845646 -0.035759751 0.040541198
-0.0060912883 -0.036389358 0.040541198
-0.0030561464 -0.036768861 0.040541198
3.3323489e-14 -0.037274938 0.039513096
0.0060912883 -0.036389358 0.040541198
0.012015403 -0.034884371 0.040541198
0.012138922 -0.035242982 0.039513096
0.01486366 -0.033769228 0.040541198
0.017790787 -0.032755289 0.039513096
0.020234827 -0.030851919 0.040541198
0.020442842 -0.031169077 0.039513096
0.022954391 -0.029368641 0.039513096
0.027208317 -0.024919802 0.040541198
0.027488019 -0.025175979 0.039513096
0.029478937 -0.02281257 0.039513096
0.029178977 -0.022580443 0.040541198
0.030668577 -0.020567557 0.040456861
-0.030440524 -0.020414615 0.040960375
-0.019932969 -0.030391676 0.041488785
-0.020234827 -0.030851919 0.040541198
-0.01734706 -0.031938326 0.041488785
-0.01183616 -0.03436397 0.041488785
-0.0089490432 -0.035226297 0.041488785
-0.0060004196 -0.035846509 0.041488785
3.3325373e-14 -0.036895651 0.040541198
0.0030105556 -0.036220349 0.041488785
0.0030561464 -0.036768861 0.040541198
0.0060004196 -0.035846509 0.041488785
0.0090845646 -0.035759751 0.040541198
0.017609758 -0.032421991 0.040541198
0.022720821 -0.029069802 0.040541198
0.024676956 -0.026683798 0.041488785
0.02680243 -0.024548054 0.041488785
0.025050655 -0.02708789 0.040541198
0.028743692 -0.022243593 0.041488785
0.030197669 -0.020251747 0.041463796
-0.0288056 -0.020662596 0.042509988
-0.028186046 -0.021812052 0.042327628
-0.02680243 -0.024548054 0.041488785
-0.024198206 -0.026166115 0.042327628
-0.024676956 -0.026683798 0.041488785
-0.022381878 -0.028636146 0.041488785
-0.019546255 -0.029802058 0.042327628
-0.014641927 -0.033265468 0.041488785
-0.0087754251 -0.034542881 0.042327628
-0.0058840076 -0.035151061 0.042327628
-0.0030105556 -0.036220349 0.041488785
3.3327172e-14 -0.035640128 0.042327628
3.3327182e-14 -0.036345251 0.041488785
0.0029521487 -0.035517652 0.042327628
0.0058840076 -0.035151061 0.042327628
0.0087754251 -0.034542881 0.042327628
0.01160653 -0.033697288 0.042327628
0.0089490432 -0.035226297 0.041488785
0.01183616 -0.03436397 0.041488785
0.014357864 -0.032620095 0.042327628
0.014641927 -0.033265468 0.041488785
0.01734706 -0.031938326 0.041488785
0.019546255 -0.029802058 0.042327628
0.019932969 -0.030391676 0.041488785
0.021947654 -0.028080584 0.042327628
0.022381878 -0.028636146 0.041488785
0.024198206 -0.026166115 0.042327628
0.026282445 -0.024071805 0.042327628
0.029493799 -0.020319957 0.042137917
-0.027522644 -0.021298671 0.04303275
-0.026282445 -0.024071805 0.042327628
-0.021947654 -0.028080584 0.042327628
-0.017010516 -0.031318702 0.042327628
-0.016610147 -0.030581569 0.04303275
-0.01401993 -0.031852331 0.04303275
-0.014357864 -0.032620095 0.042327628
-0.01160653 -0.033697288 0.042327628
-0.008568882 -0.033729862 0.04303275
-0.0057455185 -0.03432373 0.04303275
3.3328819e-14 -0.034801282 0.04303275
-0.0029521487 -0.035517652 0.042327628
0.0028826655 -0.034681689 0.04303275
0.0057455185 -0.03432373 0.04303275
0.008568882 -0.033729862 0.04303275
0.011333353 -0.03290417 0.04303275
0.017010516 -0.031318702 0.042327628
0.016610147 -0.030581569 0.04303275
0.019086204 -0.029100621 0.04303275
0.023628663 -0.025550256 0.04303275
0.028186046 -0.021812052 0.042327628
0.028265849 -0.02083711 0.042796556
-0.024965061 -0.022865228 0.043583155
-0.023628663 -0.025550256 0.04303275
-0.020847546 -0.026673071 0.043583155
-0.018566517 -0.028308256 0.043583155
-0.021431081 -0.027419666 0.04303275
-0.019086204 -0.029100621 0.04303275
-0.011024763 -0.032008242 0.043583155
-0.011333353 -0.03290417 0.04303275
-0.0055890768 -0.033389147 0.043583155
-0.002804175 -0.033737361 0.043583155
-0.0028826655 -0.034681689 0.04303275
0.0055890768 -0.033389147 0.043583155
0.0083355652 -0.032811452 0.043583155
0.013638188 -0.030985041 0.043583155
0.01401993 -0.031852331 0.04303275
0.016157879 -0.029748879 0.043583155
0.018566517 -0.028308256 0.043583155
0.020847546 -0.026673071 0.043583155
0.022985293 -0.024854561 0.043583155
0.021431081 -0.027419666 0.04303275
0.024965061 -0.022865228 0.043583155
0.025663847 -0.023505239 0.04303275
-0.022287251 -0.024099752 0.043962441
-0.022985293 -0.024854561 0.043583155
-0.01566718 -0.028845435 0.043962441
-0.016157879 -0.029748879 0.043583155
-0.013638188 -0.030985041 0.043583155
-0.0083355652 -0.032811452 0.043583155
-0.0054193418 -0.032375149 0.043962441
-0.0027190149 -0.032712787 0.043962441
3.3326921e-14 -0.033853699 0.043583155
0.002804175 -0.033737361 0.043583155
0.0080824215 -0.031814996 0.043962441
0.010689951 -0.031036181 0.043962441
0.011024763 -0.032008242 0.043583155
0.013224009 -0.030044055 0.043962441
0.018002668 -0.027448561 0.043962441
0.024206895 -0.022170832 0.043962441
0.025534319 -0.020780353 0.043935396
-0.024206895 -0.022170832 0.043962441
-0.019550577 -0.025013682 0.044159319
-0.017411454 -0.02654714 0.044159319
-0.020214427 -0.025863035 0.043962441
-0.018002668 -0.027448561 0.043962441
-0.012789728 -0.029057395 0.044159319
-0.013224009 -0.030044055 0.043962441
-0.010689951 -0.031036181 0.043962441
-0.0078169918 -0.030770181 0.044159319
-0.0080824215 -0.031814996 0.043962441
-0.0052413684 -0.031311937 0.044159319
-0.0026297213 -0.031638488 0.044159319
3.3326681e-14 -0.032825593 0.043962441
0.0027190149 -0.032712787 0.043962441
0.0052413684 -0.031311937 0.044159319
0.0054193418 -0.032375149 0.043962441
0.010338889 -0.03001694 0.044159319
0.015152663 -0.027898138 0.044159319
0.01566718 -0.028845435 0.043962441
0.020214427 -0.025863035 0.043962441
0.022287251 -0.024099752 0.043962441
-0.031286664 -0.018705409 0.041420922
-0.030197669 -0.020251747 0.041463796
-0.032267749 -0.018951016 0.038937189
-0.033100974 -0.015466556 0.042081922
-0.035995696 -0.0090564275 0.046090726
-0.036128916 -0.0087255482 0.046326324
-0.035999998 -0.0089872163 0.046287499
-0.035878044 -0.0095524816 0.045246959
-0.035925288 -0.0093772542 0.045507234
-0.035953511 -0.0092725717 0.045662723
-0.035964452 -0.0092319939 0.045722995
-0.035744086 -0.0099616386 0.04479159
-0.036025874 -0.0094635347 0.044752393
-0.035802014 -0.0097847031 0.044988509
-0.035870168 -0.010030714 0.044068433
-0.036070049 -0.010028962 0.042796288
-0.035475027 -0.011331499 0.042836417
-0.034946751 -0.011916314 0.043395374
-0.034952912 -0.011903267 0.043401778
-0.034995131 -0.011806675 0.043459576
-0.035299253 -0.011110837 0.043875929
-0.034517162 -0.012826025 0.042948827
-0.034121796 -0.013965033 0.042161658
-0.033880696 -0.014067097 0.042472646
-0.034025148 -0.013796343 0.042562768
-0.032280155 -0.016801219 0.041864913
-0.032257389 -0.017138321 0.041580025
-0.033107236 -0.015576151 0.041957654
-0.033029128 -0.01558508 0.042060852
-0.033037703 -0.015570936 0.042063367
-0.031220427 -0.018680297 0.041523926
-0.031696126 -0.017709166 0.041771144
-0.032074381 -0.017112946 0.041838448
-0.031330016 -0.018499931 0.041542713
-0.029915132 -0.020062266 0.04191301
-0.030358387 -0.019704217 0.041704465
-0.030974742 -0.020772882 0.039401032
-0.030957744 -0.020761482 0.039513096
-0.030831246 -0.020676648 0.039925952
-0.033197749 -0.017423505 0.038180925
-0.032804281 -0.018169461 0.03803961
-0.031121258 -0.020871142 0.03843509
-0.033493835 -0.016862176 0.038287263
-0.034112006 -0.015576298 0.038627945
-0.033325598 -0.017033724 0.039225735
-0.03380473 -0.016067229 0.039461415
-0.03347303 -0.016238201 0.040391341
-0.033897672 -0.015353277 0.040654778
-0.034243494 -0.015114618 0.039758112
-0.036535095 -0.0081807813 0.045019601
-0.03560755 -0.011558774 0.041554686
-0.035856374 -0.010765412 0.042150889
-0.035320785 -0.012404053 0.041011333
-0.036409643 -0.0089741638 0.042581789
-0.036252581 -0.0093500987 0.043490786
-0.036423754 -0.0089196488 0.042633504
-0.035390429 -0.010883961 0.044041224
-0.03568748 -0.010654063 0.043429669
-0.036301933 -0.0093902228 0.042187098
-0.036617201 -0.0080889203 0.043589406
-0.036176432 -0.0098750088 0.041727208
-0.034632415 -0.013653805 0.041353893
-0.034947217 -0.012842847 0.041791517
-0.034429763 -0.01322355 0.042558126
-0.035229113 -0.012062568 0.042289127
-0.034706362 -0.01251124 0.043010846
-0.034647267 -0.012550507 0.04308407
-0.032993294 -0.016334182 0.041304052
-0.033781175 -0.014731828 0.041820966
-0.033507578 -0.014744183 0.04227424
-0.033735435 -0.014339369 0.042382013
-0.033251464 -0.016296333 0.040852312
-0.033405788 -0.015522073 0.041535214
-0.032544918 -0.017159995 0.041128945
-0.031560678 -0.018802863 0.040946651
-0.033186879 -0.017094882 0.039705824
-0.032813344 -0.017995512 0.039052121
-0.03214987 -0.018948957 0.039444361
-0.033010587 -0.017137276 0.040186476
-0.031992998 -0.018924247 0.039952226
-0.031796515 -0.018875767 0.040455021
-0.036251497 -0.008519128 0.046226282
-0.036155932 -0.008959746 0.045474451
-0.036407046 -0.0087313326 0.044234361
-0.035145056 -0.013079565 0.039618172
-0.035059966 -0.013296452 0.03952194
-0.034999024 -0.013281083 0.040531695
-0.034640726 -0.014185305 0.040114503
-0.035535287 -0.011978877 0.040215235
-0.034283314 -0.014491264 0.040975388
-0.033669744 -0.015447304 0.04109934
-0.032796431 -0.017159378 0.040662624
-0.030642737 -0.020550227 0.040541198
-0.037500001 -0.0021278739 0.047003727
-0.037500001 -0.0021823053 0.047043256
-0.037554994 -0.0046999999 0.049128827
-0.037814055 -0.0046999999 0.050340574
-0.038067732 -0.0046999999 0.05120353
-0.03823461 -0.0046999999 0.051771227
-0.039743543 -0.0046999999 0.055177867
-0.039723545 -0.0046999999 0.055140514
-0.038784992 -0.0046999999 0.053217452
-0.038759317 -0.0046999999 0.053162247
-0.039930068 -0.005380589 0.055566527
-0.040446591 -0.0050237225 0.056398533
-0.038755223 -0.0049238768 0.053218361
-0.038993236 -0.0054463553 0.053879187
-0.039063241 -0.0054410268 0.054052401
-0.03968098 -0.0050414945 0.055140868
-0.039673604 -0.0053984704 0.055118553
-0.038038246 -0.0048327842 0.051207256
-0.038633138 -0.0054737641 0.052988235
-0.03742943 -0.0055821254 0.049129922
-0.037463896 -0.005565613 0.049313523
-0.037711516 -0.0055455659 0.050254941
-0.037957579 -0.0055256453 0.051190432
-0.037960861 -0.0055253794 0.051202904
-0.037124749 -0.0059042815 0.047367569
-0.037500001 -0.0046999999 0.048871592
-0.03753823 -0.0047692568 0.049130518
-0.037291657 -0.0056481324 0.048395988
-0.036978044 -0.0063484604 0.046327148
-0.036988243 -0.0063175829 0.046399474
-0.037200954 -0.0047264057 0.045458477
-0.037220079 -0.0045195241 0.045458477
-0.03726089 -0.0047340207 0.047011856
-0.037497323 -0.0021761532 0.047011856
-0.032017205 -0.019523028 0.03788802
-0.032385007 -0.0188905 0.03795886
-0.0332046 -0.017427118 0.010987497
-0.03295638 -0.017881099 0.038094237
-0.030850796 -0.021294426 0.037837502
-0.031144662 -0.020886838 0.037837502
-0.024867099 -0.028069153 0.010987497
-0.027653988 -0.025327988 0.037837502
-0.028053408 -0.024853837 0.037837502
-0.028069153 -0.024867099 0.010987497
-0.021302428 -0.030861896 0.010987497
-0.021287112 -0.030840529 0.037837502
-0.020566272 -0.03135727 0.037837502
-0.015107125 -0.034322366 0.037837502
-0.017898206 -0.032953061 0.037837502
-0.0089722546 -0.036400415 0.037837502
-0.0092333695 -0.036345493 0.037837502
-0.008974337 -0.036410317 0.010987497
-0.012212214 -0.035455775 0.037837502
-0.013286713 -0.035035089 0.037837502
-0.0061910632 -0.036985412 0.037837502
-0.0045161559 -0.037194837 0.037837502
-0.003106206 -0.037371133 0.037837502
3.3242811e-14 -0.037500001 0.037837502
3.3340586e-14 -0.037500001 0.010987497
0.003106206 -0.037371133 0.037837502
0.0092333695 -0.036345493 0.037837502
0.013297684 -0.03506311 0.010987497
0.013286713 -0.035035089 0.037837502
0.012212214 -0.035455775 0.037837502
0.017898206 -0.032953061 0.037837502
0.015107125 -0.034322366 0.037837502
0.021287112 -0.030840529 0.037837502
0.025460985 -0.027531587 0.037837502
0.030861896 -0.021302428 0.010987497
0.028069153 -0.024867099 0.010987497
0.027653988 -0.025327988 0.037837502
0.0332046 -0.017427118 0.010987497
0.03208686 -0.019408334 0.037896905
0.031269275 -0.020699818 0.037838448
0.034684822 -0.014255285 0.039094113
0.03399317 -0.015822096 0.03856409
0.033198673 -0.017424002 0.038179055
0.035887565 -0.010878076 0.040936239
0.03506311 -0.013297684 0.010987497
0.035845075 -0.011010964 0.040849071
0.035228018 -0.012843822 0.039747793
0.035060663 -0.013296725 0.039519869
0.036763504 -0.0073922542 0.044581804
0.036745653 -0.0074837813 0.044427037
0.03663912 -0.007981969 0.043747485
0.037226584 -0.0045201257 0.010987497
0.036488492 -0.0086413259 0.04295383
0.036403958 -0.0090001058 0.042550184
0.036307164 -0.0093716988 0.042201582
0.037220079 0.0045195241 0.045458477
0.036638279 0.0079887416 0.043730952
0.036410317 0.008974337 0.010987497
0.036301933 0.0093902228 0.042187098
0.036423754 0.0089196488 0.042633504
0.036484431 0.0086590825 0.042933334
0.033519112 0.016814254 0.038296342
0.03506311 0.013297684 0.010987497
0.034112006 0.015576298 0.038627945
0.034439102 0.014823531 0.038892176
0.034848854 0.013834551 0.039283197
0.035145056 0.013079565 0.039618172
0.035219785 0.012868781 0.039732508
0.0332046 0.017427118 0.010987497
0.033493835 0.016862176 0.038287263
0.028069153 0.024867099 0.010987497
0.029656928 0.022950308 0.037837502
0.027653988 0.025327988 0.037837502
0.021287112 0.030840529 0.037837502
0.020566272 0.03135727 0.037837502
0.015107125 0.034322366 0.037837502
0.017427118 0.0332046 0.010987497
0.0092333695 0.036345493 0.037837502
0.012212214 0.035455775 0.037837502
0.013297684 0.03506311 0.010987497
0.0061910632 0.036985412 0.037837502
0.0045201257 0.037226584 0.010987497
1.0971427e-13 0.037500001 0.037837502
3.3306579e-14 0.037500001 0.010987497
-0.0061910632 0.036985412 0.037837502
-0.0092333695 0.036345493 0.037837502
-0.017427118 0.0332046 0.010987497
-0.017898206 0.032953061 0.037837502
-0.021287112 0.030840529 0.037837502
-0.023092987 0.029545965 0.037837502
-0.024851125 0.028050374 0.037837502
-0.025460985 0.027531587 0.037837502
-0.030850796 0.021294426 0.037837502
-0.028069153 0.024867099 0.010987497
-0.029656928 0.022950308 0.037837502
-0.032965571 0.017867409 0.038093887
-0.032856826 0.018074263 0.038054157
-0.03238894 0.01888494 0.0379586
-0.03208686 0.019408334 0.037896905
-0.035060663 0.013296725 0.039519869
-0.034139786 0.015515317 0.038646821
-0.033516765 0.016818933 0.038295273
-0.033198673 0.017424002 0.038179055
-0.035887565 0.010878076 0.040936239
-0.035541333 0.011960926 0.040225942
-0.036592737 0.0081988797 0.043451607
-0.036410045 0.0089742718 0.042579249
-0.036403958 0.0090001058 0.042550184
-0.036638279 -0.0079887416 0.043730952
-0.036764059 -0.0073909848 0.044575527
-0.036771946 -0.0073535047 0.044628486
-0.035219785 -0.012868781 0.039732508
-0.035551205 -0.011929152 0.040247779
-0.035840571 -0.011025341 0.040839292
-0.035884861 -0.010886995 0.040929835
-0.036089107 -0.010178098 0.041488398
-0.037226584 -0.0045201257 0.010987497
-0.036484431 -0.0086590825 0.042933334
-0.033519112 -0.016814254 0.038296342
-0.033987757 -0.01583573 0.038558453
-0.03506311 -0.013297684 0.010987497
-0.034439102 -0.014823531 0.038892176
-0.034663104 -0.014308016 0.039073128
-0.034848854 -0.013834551 0.039283197
-0.036410317 -0.008974337 0.010987497
0.036617201 0.0080889203 0.043589406
0.037226584 0.0045201257 0.010987497
0.037437007 0.0021726529 0.045458477
-0.037219752 0.0045194901 0.045458477
-0.037226584 0.0045201257 0.010987497
-0.037435357 0.0022009476 0.045458477
-0.037500001 8.1396402e-15 0.010987497
-0.037437007 -0.0021726529 0.045458477
0.037500001 8.1690551e-15 0.010987497
0.037435357 -0.0022009476 0.045458477
0.037199296 -0.0047394354 0.045458477
-0.00825 0.0060000001 0.097887501
-0.0084459987 0.0071115657 0.097887501
-0.008299375 0.0065643564 0.095887497
-0.0094109401 0.0084896442 0.095887497
-0.010388435 0.0090540014 0.097887501
-0.010935644 0.0092006251 0.097887501
-0.0115 0.0092500001 0.097887501
-0.010935644 0.0092006251 0.095887497
-0.012064356 0.0092006251 0.095887497
-0.012064356 0.0092006251 0.097887501
-0.012611565 0.0090540014 0.095887497
-0.013125 0.0088145826 0.097887501
-0.013989644 0.00808906 0.097887501
-0.013989644 0.00808906 0.095887497
-0.014314583 0.0076250001 0.097887501
-0.014314583 0.0076250001 0.095887497
-0.014554001 0.0071115657 0.095887497
-0.014700625 0.0065643564 0.097887501
-0.01475 0.0060000001 0.095887497
-0.014700625 0.0054356433 0.097887501
-0.014700625 0.0054356433 0.095887497
-0.014314583 0.004375 0.097887501
-0.014314583 0.004375 0.095887497
-0.013989644 0.0039109401 0.095887497
-0.01358906 0.0035103555 0.095887497
-0.01358906 0.0035103555 0.097887501
-0.012064356 0.0027993747 0.097887501
-0.012064356 0.0027993747 0.095887497
-0.010935644 0.0027993747 0.095887497
-0.010935644 0.0027993747 0.097887501
-0.010388435 0.0029459989 0.095887497
-0.0090103559 0.0039109401 0.097887501
-0.0086854175 0.004375 0.095887497
-0.0084459987 0.0048884344 0.095887497
-0.008299375 0.0054356433 0.095887497
-0.008299375 -0.0054356433 0.097887501
-0.008299375 -0.0054356433 0.095887497
-0.0086854175 -0.004375 0.097887501
-0.0086854175 -0.004375 0.095887497
-0.0090103559 -0.0039109401 0.095887497
-0.0098750005 -0.0031854175 0.097887501
-0.0098750005 -0.0031854175 0.095887497
-0.010388435 -0.0029459989 0.095887497
-0.010935644 -0.0027993747 0.097887501
-0.010935644 -0.0027993747 0.095887497
-0.0115 -0.00275 0.097887501
-0.0115 -0.00275 0.095887497
-0.012064356 -0.0027993747 0.097887501
-0.012611565 -0.0029459989 0.097887501
-0.013125 -0.0031854175 0.097887501
-0.01358906 -0.0035103555 0.097887501
-0.013989644 -0.0039109401 0.097887501
-0.013989644 -0.0039109401 0.095887497
-0.014314583 -0.004375 0.095887497
-0.014554001 -0.0048884344 0.097887501
-0.014700625 -0.0054356433 0.097887501
-0.014554001 -0.0048884344 0.095887497
-0.014700625 -0.0054356433 0.095887497
-0.014554001 -0.0071115657 0.097887501
-0.014314583 -0.0076250001 0.097887501
-0.01358906 -0.0084896442 0.097887501
-0.013125 -0.0088145826 0.095887497
-0.010935644 -0.0092006251 0.097887501
-0.0115 -0.0092500001 0.095887497
-0.010935644 -0.0092006251 0.095887497
-0.010388435 -0.0090540014 0.097887501
-0.0098750005 -0.0088145826 0.097887501
-0.0094109401 -0.0084896442 0.097887501
-0.0098750005 -0.0088145826 0.095887497
-0.0094109401 -0.0084896442 0.095887497
-0.0090103559 -0.00808906 0.097887501
-0.0086854175 -0.0076250001 0.095887497
-0.0084459987 -0.0071115657 0.097887501
-0.008299375 -0.0065643564 0.095887497
-0.00082822092 0.0099999998 0.095996536
0.00027889837 0.0099999998 0.095899679
0.00082822092 -0.0099999998 0.095996536
0.00082822092 0.0099999998 0.095996536
0.01475 0.0060000001 0.095887497
0.014314583 0.0076250001 0.095887497
0.013989644 0.00808906 0.097887501
0.013989644 0.00808906 0.095887497
0.01358906 0.0084896442 0.097887501
0.01358906 0.0084896442 0.095887497
0.013125 0.0088145826 0.097887501
0.012611565 0.0090540014 0.097887501
0.0115 0.0092500001 0.095887497
0.0115 0.0092500001 0.097887501
0.010935644 0.0092006251 0.097887501
0.0098750005 0.0088145826 0.095887497
0.0094109401 0.0084896442 0.097887501
0.0094109401 0.0084896442 0.095887497
0.0090103559 0.00808906 0.097887501
0.0086854175 0.0076250001 0.097887501
0.0084459987 0.0071115657 0.095887497
0.0084459987 0.0071115657 0.097887501
0.008299375 0.0065643564 0.097887501
0.008299375 0.0065643564 0.095887497
0.008299375 0.0054356433 0.095887497
0.0084459987 0.0048884344 0.095887497
0.0084459987 0.0048884344 0.097887501
0.0086854175 0.004375 0.095887497
0.0094109401 0.0035103555 0.097887501
0.010388435 0.0029459989 0.097887501
0.0098750005 0.0031854175 0.095887497
0.0115 0.00275 0.095887497
0.012064356 0.0027993747 0.095887497
0.012611565 0.0029459989 0.097887501
0.012611565 0.0029459989 0.095887497
0.013125 0.0031854175 0.097887501
0.01358906 0.0035103555 0.095887497
0.014314583 0.004375 0.097887501
0.013989644 0.0039109401 0.095887497
0.014554001 0.0048884344 0.097887501
0.014700625 0.0054356433 0.095887497
0.014700625 0.0054356433 0.097887501
0.01475 0.0060000001 0.097887501
0.014700625 -0.0054356433 0.095887497
0.014554001 -0.0048884344 0.097887501
0.014554001 -0.0048884344 0.095887497
0.014314583 -0.004375 0.095887497
0.013125 -0.0031854175 0.097887501
0.01358906 -0.0035103555 0.095887497
0.012611565 -0.0029459989 0.097887501
0.012064356 -0.0027993747 0.097887501
0.0115 -0.00275 0.097887501
0.0115 -0.00275 0.095887497
0.0090103559 -0.0039109401 0.095887497
0.0084459987 -0.0048884344 0.097887501
0.00825 -0.0060000001 0.095887497
0.008299375 -0.0065643564 0.097887501
0.0084459987 -0.0071115657 0.097887501
0.0084459987 -0.0071115657 0.095887497
0.0090103559 -0.00808906 0.097887501
0.0090103559 -0.00808906 0.095887497
0.0094109401 -0.0084896442 0.095887497
0.0094109401 -0.0084896442 0.097887501
0.0098750005 -0.0088145826 0.097887501
0.010388435 -0.0090540014 0.095887497
0.0115 -0.0092500001 0.095887497
0.012064356 -0.0092006251 0.095887497
0.012611565 -0.0090540014 0.095887497
0.013125 -0.0088145826 0.097887501
0.01358906 -0.0084896442 0.097887501
0.01358906 -0.0084896442 0.095887497
0.014314583 -0.0076250001 0.097887501
0.014700625 -0.0065643564 0.097887501
0.014700625 -0.0065643564 0.095887497
-0.012592738 0.0046977242 0.095887497
-0.013125 0.0031854175 0.095887497
-0.012611565 0.0029459989 0.095887497
-0.012081434 0.0044025225 0.095887497
-0.0115 0.00275 0.095887497
-0.011204798 0.0043258267 0.095887497
-0.010918566 0.0044025225 0.095887497
-0.01065 0.0045277569 0.095887497
-0.0098750005 0.0031854175 0.095887497
-0.010407261 0.0046977242 0.095887497
-0.0094109401 0.0035103555 0.095887497
-0.0090103559 0.0039109401 0.095887497
-0.010027757 0.0051500001 0.095887497
-0.0098000001 0.0060000001 0.095887497
-0.00825 0.0060000001 0.095887497
-0.0084459987 0.0071115657 0.095887497
-0.0086854175 0.0076250001 0.095887497
-0.0090103559 0.00808906 0.095887497
-0.010918566 0.0075974776 0.095887497
-0.0098750005 0.0088145826 0.095887497
-0.010388435 0.0090540014 0.095887497
-0.011204798 0.007674173 0.095887497
-0.0115 0.0077 0.095887497
-0.011795202 0.007674173 0.095887497
-0.0115 0.0092500001 0.095887497
-0.012081434 0.0075974776 0.095887497
-0.01235 0.0074722432 0.095887497
-0.012592738 0.0073022754 0.095887497
-0.013125 0.0088145826 0.095887497
-0.01358906 0.0084896442 0.095887497
-0.012972243 0.00685 0.095887497
-0.014700625 0.0065643564 0.095887497
-0.0132 0.0060000001 0.095887497
-0.014554001 0.0048884344 0.095887497
0.0090103559 0.0039109401 0.095887497
0.01065 0.0045277569 0.095887497
0.0094109401 0.0035103555 0.095887497
0.010388435 0.0029459989 0.095887497
0.010935644 0.0027993747 0.095887497
0.0115 0.0043000001 0.095887497
0.01235 0.0045277569 0.095887497
0.013125 0.0031854175 0.095887497
0.012802276 0.0049072611 0.095887497
0.012972243 0.0051500001 0.095887497
0.014314583 0.004375 0.095887497
0.013174173 0.0057047983 0.095887497
0.014554001 0.0048884344 0.095887497
0.014700625 0.0065643564 0.095887497
0.014554001 0.0071115657 0.095887497
0.012802276 0.007092739 0.095887497
0.012592738 0.0073022754 0.095887497
0.013125 0.0088145826 0.095887497
0.01235 0.0074722432 0.095887497
0.012081434 0.0075974776 0.095887497
0.012611565 0.0090540014 0.095887497
0.011795202 0.007674173 0.095887497
0.012064356 0.0092006251 0.095887497
0.0115 0.0077 0.095887497
0.010935644 0.0092006251 0.095887497
0.010918566 0.0075974776 0.095887497
0.010388435 0.0090540014 0.095887497
0.0090103559 0.00808906 0.095887497
0.010027757 0.00685 0.095887497
0.0086854175 0.0076250001 0.095887497
0.0098258266 0.0062952018 0.095887497
0.0098000001 0.0060000001 0.095887497
0.00825 0.0060000001 0.095887497
0.0098258266 0.0057047983 0.095887497
0.0099025229 0.0054185656 0.095887497
-0.014314583 -0.0076250001 0.095887497
-0.012592738 -0.0073022754 0.095887497
-0.013989644 -0.00808906 0.095887497
-0.01358906 -0.0084896442 0.095887497
-0.01235 -0.0074722432 0.095887497
-0.012611565 -0.0090540014 0.095887497
-0.012064356 -0.0092006251 0.095887497
-0.011795202 -0.007674173 0.095887497
-0.011204798 -0.007674173 0.095887497
-0.010388435 -0.0090540014 0.095887497
-0.01065 -0.0074722432 0.095887497
-0.010027757 -0.00685 0.095887497
-0.0090103559 -0.00808906 0.095887497
-0.0099025229 -0.006581434 0.095887497
-0.0084459987 -0.0071115657 0.095887497
-0.0098258266 -0.0062952018 0.095887497
-0.0098000001 -0.0060000001 0.095887497
-0.00825 -0.0060000001 0.095887497
-0.0098258266 -0.0057047983 0.095887497
-0.0084459987 -0.0048884344 0.095887497
-0.010027757 -0.0051500001 0.095887497
-0.010407261 -0.0046977242 0.095887497
-0.0094109401 -0.0035103555 0.095887497
-0.011795202 -0.0043258267 0.095887497
-0.012081434 -0.0044025225 0.095887497
-0.012064356 -0.0027993747 0.095887497
-0.012611565 -0.0029459989 0.095887497
-0.012592738 -0.0046977242 0.095887497
-0.013125 -0.0031854175 0.095887497
-0.01358906 -0.0035103555 0.095887497
-0.012802276 -0.0049072611 0.095887497
-0.012972243 -0.0051500001 0.095887497
-0.013174173 -0.0057047983 0.095887497
-0.0132 -0.0060000001 0.095887497
-0.01475 -0.0060000001 0.095887497
-0.014700625 -0.0065643564 0.095887497
-0.013097477 -0.006581434 0.095887497
-0.014554001 -0.0071115657 0.095887497
-0.012972243 -0.00685 0.095887497
0.0086854175 -0.0076250001 0.095887497
0.010407261 -0.0073022754 0.095887497
0.0098750005 -0.0088145826 0.095887497
0.010918566 -0.0075974776 0.095887497
0.010935644 -0.0092006251 0.095887497
0.0115 -0.0077 0.095887497
0.011795202 -0.007674173 0.095887497
0.012081434 -0.0075974776 0.095887497
0.013125 -0.0088145826 0.095887497
0.012592738 -0.0073022754 0.095887497
0.012802276 -0.007092739 0.095887497
0.012972243 -0.00685 0.095887497
0.013989644 -0.00808906 0.095887497
0.014314583 -0.0076250001 0.095887497
0.013097477 -0.006581434 0.095887497
0.014554001 -0.0071115657 0.095887497
0.013174173 -0.0062952018 0.095887497
0.0132 -0.0060000001 0.095887497
0.01475 -0.0060000001 0.095887497
0.013174173 -0.0057047983 0.095887497
0.013097477 -0.0054185656 0.095887497
0.013989644 -0.0039109401 0.095887497
0.013125 -0.0031854175 0.095887497
0.012611565 -0.0029459989 0.095887497
0.011795202 -0.0043258267 0.095887497
0.0115 -0.0043000001 0.095887497
0.012064356 -0.0027993747 0.095887497
0.010935644 -0.0027993747 0.095887497
0.010388435 -0.0029459989 0.095887497
0.01065 -0.0045277569 0.095887497
0.0098750005 -0.0031854175 0.095887497
0.010407261 -0.0046977242 0.095887497
0.0094109401 -0.0035103555 0.095887497
0.0086854175 -0.004375 0.095887497
0.0084459987 -0.0048884344 0.095887497
0.0099025229 -0.0054185656 0.095887497
0.008299375 -0.0054356433 0.095887497
0.008299375 -0.0065643564 0.095887497
0.0099025229 -0.006581434 0.095887497
-0.0086854175 -0.0076250001 0.097887501
-0.0098750005 0.0031854175 0.097887501
-0.0115 -0.0092500001 0.097887501
-0.012064356 -0.0092006251 0.097887501
-0.008299375 0.0054356433 0.097887501
-0.0084459987 0.0048884344 0.097887501
-0.0086854175 0.004375 0.097887501
-0.0094109401 0.0035103555 0.097887501
-0.00825 -0.0060000001 0.097887501
-0.008299375 -0.0065643564 0.097887501
-0.0115 0.00275 0.097887501
-0.008299375 0.0065643564 0.097887501
-0.014554001 0.0071115657 0.097887501
-0.012611565 -0.0090540014 0.097887501
-0.013125 -0.0088145826 0.097887501
-0.0155 -0.0099999998 0.097887501
-0.010388435 0.0029459989 0.097887501
-0.0084459987 -0.0048884344 0.097887501
-0.013989644 -0.00808906 0.097887501
-0.012611565 0.0029459989 0.097887501
-0.010388435 -0.0029459989 0.097887501
-0.012611565 0.0090540014 0.097887501
-0.0098750005 0.0088145826 0.097887501
-0.0094109401 0.0084896442 0.097887501
-0.0090103559 0.00808906 0.097887501
-0.0086854175 0.0076250001 0.097887501
-0.014314583 -0.004375 0.097887501
-0.0155 0.0099999998 0.097887501
-0.01475 0.0060000001 0.097887501
-0.0090103559 -0.0039109401 0.097887501
-0.0094109401 -0.0035103555 0.097887501
-0.01358906 0.0084896442 0.097887501
-0.014554001 0.0048884344 0.097887501
-0.01475 -0.0060000001 0.097887501
-0.014700625 -0.0065643564 0.097887501
-0.013989644 0.0039109401 0.097887501
-0.013125 0.0031854175 0.097887501
-0.00788539 0.0099999998 0.097887501
-0.00082822092 -0.0099999998 0.095996536
0.00788539 0.0099999998 0.097887501
0.013989644 -0.00808906 0.097887501
0.01475 -0.0060000001 0.097887501
0.014554001 -0.0071115657 0.097887501
0.012611565 -0.0090540014 0.097887501
0.012064356 -0.0092006251 0.097887501
0.00788539 -0.0099999998 0.097887501
0.0115 -0.0092500001 0.097887501
0.0155 -0.0099999998 0.097887501
0.013989644 0.0039109401 0.097887501
0.01358906 0.0035103555 0.097887501
0.014700625 -0.0054356433 0.097887501
0.014314583 0.0076250001 0.097887501
0.014554001 0.0071115657 0.097887501
0.014700625 0.0065643564 0.097887501
0.010935644 -0.0092006251 0.097887501
0.010388435 -0.0090540014 0.097887501
0.00825 0.0060000001 0.097887501
0.0155 0.0099999998 0.097887501
0.012064356 0.0027993747 0.097887501
0.014314583 -0.004375 0.097887501
0.0086854175 -0.0076250001 0.097887501
0.0098750005 0.0088145826 0.097887501
0.010388435 0.0090540014 0.097887501
0.012064356 0.0092006251 0.097887501
0.0086854175 -0.004375 0.097887501
0.0090103559 -0.0039109401 0.097887501
0.0115 0.00275 0.097887501
0.013989644 -0.0039109401 0.097887501
0.01358906 -0.0035103555 0.097887501
0.008299375 -0.0054356433 0.097887501
0.00825 -0.0060000001 0.097887501
0.008299375 0.0054356433 0.097887501
0.010935644 -0.0027993747 0.097887501
0.010935644 0.0027993747 0.097887501
0.0086854175 0.004375 0.097887501
0.0098750005 0.0031854175 0.097887501
0.010388435 -0.0029459989 0.097887501
0.0098750005 -0.0031854175 0.097887501
0.0090103559 0.0039109401 0.097887501
0.0094109401 -0.0035103555 0.097887501
-0.0098000001 0.0060000001 0.0938875
-0.0098258266 0.0062952018 0.095887497
-0.0099025229 0.006581434 0.095887497
-0.0099025229 0.006581434 0.0938875
-0.010027757 0.00685 0.095887497
-0.010197724 0.007092739 0.0938875
-0.010197724 0.007092739 0.095887497
-0.010407261 0.0073022754 0.095887497
-0.010407261 0.0073022754 0.0938875
-0.01065 0.0074722432 0.0938875
-0.01065 0.0074722432 0.095887497
-0.010918566 0.0075974776 0.0938875
-0.011204798 0.007674173 0.0938875
-0.0115 0.0077 0.0938875
-0.011795202 0.007674173 0.0938875
-0.012802276 0.007092739 0.0938875
-0.012802276 0.007092739 0.095887497
-0.012972243 0.00685 0.0938875
-0.013097477 0.006581434 0.095887497
-0.013174173 0.0062952018 0.095887497
-0.0132 0.0060000001 0.0938875
-0.013174173 0.0057047983 0.095887497
-0.013097477 0.0054185656 0.095887497
-0.012972243 0.0051500001 0.095887497
-0.012972243 0.0051500001 0.0938875
-0.012802276 0.0049072611 0.095887497
-0.01235 0.0045277569 0.095887497
-0.01235 0.0045277569 0.0938875
-0.011795202 0.0043258267 0.095887497
-0.0115 0.0043000001 0.095887497
-0.0115 0.0043000001 0.0938875
-0.011204798 0.0043258267 0.0938875
-0.010407261 0.0046977242 0.0938875
-0.010197724 0.0049072611 0.0938875
-0.010197724 0.0049072611 0.095887497
-0.0099025229 0.0054185656 0.095887497
-0.0098258266 0.0057047983 0.095887497
-0.0098258266 0.0057047983 0.0938875
0.0132 0.0060000001 0.095887497
0.0132 0.0060000001 0.0938875
0.013174173 0.0062952018 0.0938875
0.013174173 0.0062952018 0.095887497
0.013097477 0.006581434 0.095887497
0.012972243 0.00685 0.095887497
0.012972243 0.00685 0.0938875
0.012081434 0.0075974776 0.0938875
0.011795202 0.007674173 0.0938875
0.011204798 0.007674173 0.095887497
0.011204798 0.007674173 0.0938875
0.01065 0.0074722432 0.095887497
0.010407261 0.0073022754 0.095887497
0.010197724 0.007092739 0.095887497
0.010197724 0.007092739 0.0938875
0.010027757 0.00685 0.0938875
0.0099025229 0.006581434 0.095887497
0.0099025229 0.006581434 0.0938875
0.0098000001 0.0060000001 0.0938875
0.0098258266 0.0057047983 0.0938875
0.010027757 0.0051500001 0.095887497
0.010197724 0.0049072611 0.095887497
0.010027757 0.0051500001 0.0938875
0.010407261 0.0046977242 0.095887497
0.010918566 0.0044025225 0.0938875
0.010918566 0.0044025225 0.095887497
0.011204798 0.0043258267 0.095887497
0.011795202 0.0043258267 0.095887497
0.012081434 0.0044025225 0.095887497
0.01235 0.0045277569 0.0938875
0.012592738 0.0046977242 0.095887497
0.012592738 0.0046977242 0.0938875
0.012802276 0.0049072611 0.0938875
0.013097477 0.0054185656 0.095887497
0.013097477 0.0054185656 0.0938875
-0.0098000001 -0.0060000001 0.0938875
-0.0099025229 -0.0054185656 0.095887497
-0.010027757 -0.0051500001 0.0938875
-0.010197724 -0.0049072611 0.095887497
-0.010197724 -0.0049072611 0.0938875
-0.01065 -0.0045277569 0.095887497
-0.010918566 -0.0044025225 0.095887497
-0.011204798 -0.0043258267 0.095887497
-0.010918566 -0.0044025225 0.0938875
-0.011204798 -0.0043258267 0.0938875
-0.0115 -0.0043000001 0.095887497
-0.011795202 -0.0043258267 0.0938875
-0.012081434 -0.0044025225 0.0938875
-0.01235 -0.0045277569 0.095887497
-0.012592738 -0.0046977242 0.0938875
-0.012802276 -0.0049072611 0.0938875
-0.013097477 -0.0054185656 0.095887497
-0.012972243 -0.0051500001 0.0938875
-0.013174173 -0.0057047983 0.0938875
-0.013174173 -0.0062952018 0.095887497
-0.013174173 -0.0062952018 0.0938875
-0.013097477 -0.006581434 0.0938875
-0.012972243 -0.00685 0.0938875
-0.012802276 -0.007092739 0.095887497
-0.012081434 -0.0075974776 0.095887497
-0.011795202 -0.007674173 0.0938875
-0.0115 -0.0077 0.095887497
-0.010918566 -0.0075974776 0.0938875
-0.010918566 -0.0075974776 0.095887497
-0.010407261 -0.0073022754 0.0938875
-0.010407261 -0.0073022754 0.095887497
-0.010197724 -0.007092739 0.095887497
-0.010027757 -0.00685 0.0938875
-0.0099025229 -0.006581434 0.0938875
0.0132 -0.0060000001 0.0938875
0.012972243 -0.0051500001 0.0938875
0.012972243 -0.0051500001 0.095887497
0.012802276 -0.0049072611 0.095887497
0.012592738 -0.0046977242 0.095887497
0.012802276 -0.0049072611 0.0938875
0.01235 -0.0045277569 0.095887497
0.012081434 -0.0044025225 0.095887497
0.0115 -0.0043000001 0.0938875
0.011204798 -0.0043258267 0.095887497
0.010918566 -0.0044025225 0.095887497
0.010918566 -0.0044025225 0.0938875
0.010197724 -0.0049072611 0.095887497
0.010407261 -0.0046977242 0.0938875
0.010197724 -0.0049072611 0.0938875
0.010027757 -0.0051500001 0.095887497
0.0098258266 -0.0057047983 0.095887497
0.0098000001 -0.0060000001 0.095887497
0.0098258266 -0.0062952018 0.095887497
0.010027757 -0.00685 0.095887497
0.0099025229 -0.006581434 0.0938875
0.010197724 -0.007092739 0.095887497
0.010197724 -0.007092739 0.0938875
0.010407261 -0.0073022754 0.0938875
0.01065 -0.0074722432 0.095887497
0.010918566 -0.0075974776 0.0938875
0.011204798 -0.007674173 0.095887497
0.01235 -0.0074722432 0.095887497
0.01235 -0.0074722432 0.0938875
-0.00027889837 0.0099999998 0.095899679
0.00027889837 -0.0099999998 0.095899679
-0.00027889837 -0.0099999998 0.095899679
-0.00788539 -0.0099999998 0.097887501
-0.013097477 0.006581434 0.0938875
-0.013174173 0.0062952018 0.0938875
-0.0155 0.0099999998 0.0938875
-0.010027757 0.00685 0.0938875
-0.01065 0.0045277569 0.0938875
-0.012081434 0.0075974776 0.0938875
-0.01235 0.0074722432 0.0938875
-0.0099025229 0.0054185656 0.0938875
0.010918566 0.0075974776 0.0938875
-0.012802276 -0.007092739 0.0938875
-0.012592738 -0.0073022754 0.0938875
-0.01235 -0.0074722432 0.0938875
-0.012592738 0.0073022754 0.0938875
0.01065 0.0074722432 0.0938875
0.010407261 0.0073022754 0.0938875
-0.010027757 0.0051500001 0.0938875
0.0098258266 0.0062952018 0.0938875
0.01065 -0.0045277569 0.0938875
0.010027757 -0.0051500001 0.0938875
0.010027757 -0.00685 0.0938875
0.01065 -0.0074722432 0.0938875
0.013097477 0.006581434 0.0938875
-0.012081434 -0.0075974776 0.0938875
0.0099025229 -0.0054185656 0.0938875
-0.010197724 -0.007092739 0.0938875
0.011795202 -0.007674173 0.0938875
0.012081434 -0.0075974776 0.0938875
-0.0115 -0.0077 0.0938875
0.0098258266 -0.0062952018 0.0938875
0.0098000001 -0.0060000001 0.0938875
-0.011204798 -0.007674173 0.0938875
0.0098258266 -0.0057047983 0.0938875
-0.01065 -0.0074722432 0.0938875
0.011204798 -0.007674173 0.0938875
-0.0155 -0.0099999998 0.0938875
0.0115 -0.0077 0.0938875
0.012802276 0.007092739 0.0938875
0.012592738 0.0073022754 0.0938875
0.01235 0.0074722432 0.0938875
0.012592738 -0.0073022754 0.0938875
0.0155 -0.0099999998 0.0938875
0.013174173 -0.0057047983 0.0938875
0.013097477 -0.0054185656 0.0938875
-0.012802276 0.0049072611 0.0938875
-0.012592738 0.0046977242 0.0938875
-0.013174173 0.0057047983 0.0938875
-0.013097477 0.0054185656 0.0938875
0.0115 0.0077 0.0938875
0.012802276 -0.007092739 0.0938875
0.012972243 -0.00685 0.0938875
0.013097477 -0.006581434 0.0938875
0.013174173 -0.0062952018 0.0938875
-0.0098258266 -0.0062952018 0.0938875
0.011204798 -0.0043258267 0.0938875
-0.0098258266 -0.0057047983 0.0938875
-0.0099025229 -0.0054185656 0.0938875
-0.010407261 -0.0046977242 0.0938875
0.012592738 -0.0046977242 0.0938875
0.01235 -0.0045277569 0.0938875
-0.010918566 0.0044025225 0.0938875
-0.013097477 -0.0054185656 0.0938875
-0.0132 -0.0060000001 0.0938875
-0.0098258266 0.0062952018 0.0938875
0.0155 0.0099999998 0.0938875
0.010407261 0.0046977242 0.0938875
-0.01235 -0.0045277569 0.0938875
0.0099025229 0.0054185656 0.0938875
0.01065 0.0045277569 0.0938875
-0.012081434 0.0044025225 0.0938875
-0.011795202 0.0043258267 0.0938875
-0.0115 -0.0043000001 0.0938875
-0.01065 -0.0045277569 0.0938875
0.010197724 0.0049072611 0.0938875
0.011204798 0.0043258267 0.0938875
0.0115 0.0043000001 0.0938875
0.011795202 -0.0043258267 0.0938875
0.012081434 -0.0044025225 0.0938875
0.011795202 0.0043258267 0.0938875
0.012081434 0.0044025225 0.0938875
0.012972243 0.0051500001 0.0938875
0.013174173 0.0057047983 0.0938875
-0.011326352 0.0050151921 0.096387498
-0.0115 0.0049999999 0.096387498
-0.010733956 0.0053572124 0.096387498
-0.011 0.0051339744 0.096387498
-0.010857212 0.0052339556 0.096387498
-0.010560308 0.0056579798 0.096387498
-0.010560308 0.0063420204 0.096387498
-0.010515193 0.0058263517 0.096387498
-0.010733956 0.0066427877 0.096387498
-0.01115798 0.0069396924 0.096387498
-0.010857212 0.0067660445 0.096387498
-0.0115 0.0060000001 0.095810153
-0.012439692 0.0063420204 0.096387498
-0.012366026 0.0065000001 0.096387498
-0.012439692 0.0056579798 0.096387498
-0.012484808 0.0058263517 0.096387498
-0.012 0.0051339744 0.096387498
-0.01184202 0.0050603072 0.096387498
-0.012142788 0.0052339556 0.096387498
-0.012266045 0.0066427877 0.096387498
-0.012292803 0.0066094771 0.096387498
-0.012366026 0.0055 0.096387498
-0.012266045 0.0053572124 0.096387498
-0.012203764 0.0050845495 0.096387498
-0.011673648 0.0050151921 0.096387498
-0.0125 0.0060000001 0.096387498
-0.012484808 0.0061736484 0.096387498
-0.012644686 0.0061517521 0.096387498
-0.01184202 0.0069396924 0.096387498
-0.011673648 0.0069848076 0.096387498
-0.0115 0.0070000002 0.096387498
-0.012142788 0.0067660445 0.096387498
-0.011940922 0.0070672026 0.096387498
-0.012 0.0068660253 0.096387498
-0.011 0.0068660253 0.096387498
-0.010633974 0.0065000001 0.096387498
-0.010796236 0.0069154506 0.096387498
-0.011326352 0.0069848076 0.096387498
-0.011631421 0.0050086733 0.096387498
-0.01115798 0.0050603072 0.096387498
-0.010575775 0.0063818493 0.096387498
-0.010515193 0.0061736484 0.096387498
-0.010355314 0.005848248 0.096387498
-0.0105 0.0060000001 0.096387498
-0.010633974 0.0055 0.096387498
-0.012424225 0.0056181508 0.096387498
-0.011368579 0.0069913268 0.096387498
-0.011059078 0.0049327975 0.096387498
-0.010707197 0.0053905225 0.096387498
-0.010425481 0.0082017966 0.097887501
-0.0090535013 0.0061309417 0.097887501
-0.010355314 0.005848248 0.097887501
-0.010217994 0.008087812 0.097887501
-0.0091242371 0.0065985401 0.097887501
-0.0091930954 0.0068250401 0.097887501
-0.0092356494 0.0069355308 0.097887501
-0.0092834923 0.0070438366 0.097887501
-0.0093818195 0.0047688172 0.097887501
-0.0092728818 0.0049789986 0.097887501
-0.01107512 0.0035871225 0.097887501
-0.011059078 0.0049327975 0.097887501
-0.013949968 0.00598741 0.097887501
-0.013937315 0.0057510128 0.097887501
-0.012881379 0.0039765639 0.097887501
-0.0096745221 0.007634053 0.097887501
-0.010022475 0.0079543339 0.097887501
-0.010844228 0.0036393937 0.097887501
-0.009052285 0.0058942093 0.097887501
-0.012203764 0.0050845495 0.097887501
-0.012016371 0.0036050342 0.097887501
-0.011782813 0.0035663778 0.097887501
-0.01130998 0.0035573801 0.097887501
-0.013844071 0.0052873781 0.097887501
-0.013663488 0.0048502954 0.097887501
-0.013542425 0.0046468559 0.097887501
-0.012701647 0.0081350747 0.097887501
-0.013773846 0.0069122096 0.097887501
-0.013906744 0.0064583486 0.097887501
-0.011335094 0.0084444443 0.097887501
-0.010868523 0.0083672218 0.097887501
-0.010796236 0.0069154506 0.097887501
-0.011571787 0.0084489482 0.097887501
-0.0098223137 0.0042145397 0.097887501
-0.0096578244 0.0043847947 0.097887501
-0.013089465 0.0078644305 0.097887501
-0.013261989 0.0077023208 0.097887501
-0.012644686 0.0061517521 0.097887501
-0.013556224 0.0073320814 0.097887501
-0.012269055 0.0083261672 0.097887501
-0.011940922 0.0070672026 0.097887501
-0.0090775602 0.0063664517 0.097887501
-0.0090253092 0.0061324504 0.097886167
-0.0090739224 0.0056584645 0.097887501
-0.0091182105 0.0054259086 0.097887501
-0.009045965 0.0056545287 0.097886167
-0.0090907644 0.005419293 0.097886167
-0.0091847377 0.0051987129 0.097887501
-0.0091580581 0.0051894793 0.097886167
-0.0092472173 0.0049672332 0.097886167
-0.0093574105 0.0047546295 0.097886167
-0.0095105339 0.0045701307 0.097887501
-0.010002468 0.0040609548 0.097887501
-0.010181583 0.0039015685 0.097886167
-0.010196604 0.0039254739 0.097887501
-0.010402909 0.0038093629 0.097887501
-0.010619458 0.0037137049 0.097887501
-0.010836671 0.0036121912 0.097886167
-0.011546614 0.0035504436 0.097887501
-0.01130779 0.0035292325 0.097886167
-0.012245107 0.0036660517 0.097887501
-0.012253694 0.0036391565 0.097886167
-0.012466888 0.0037488607 0.097887501
-0.01267964 0.003852688 0.097887501
-0.012478029 0.0037229198 0.097886167
-0.012693234 0.0038279435 0.097886167
-0.012897297 0.0039532473 0.097886167
-0.01307022 0.0041193324 0.097887501
-0.0132444 0.0042796601 0.097887501
-0.013424214 0.0044382587 0.097886167
-0.013402293 0.0044560502 0.097887501
-0.013688419 0.0048370468 0.097886167
-0.013764351 0.0050644693 0.097887501
-0.013901906 0.0055169403 0.097887501
-0.013965402 0.0057481434 0.097886167
-0.0139782 0.0059872647 0.097886167
-0.01396786 0.0062265052 0.097886167
-0.013939746 0.0062239245 0.097887501
-0.013851271 0.0066884933 0.097887501
-0.01367519 0.0071274089 0.097887501
-0.013700255 0.0071404004 0.097886167
-0.013418061 0.0075243171 0.097887501
-0.013440164 0.0075418828 0.097886167
-0.013282293 0.0077219373 0.097886167
-0.013107781 0.0078859152 0.097886167
-0.012918259 0.0080322837 0.097886167
-0.012902102 0.008009132 0.097887501
-0.012715494 0.0081596784 0.097886167
-0.012489973 0.0082410835 0.097887501
-0.012277918 0.0083529726 0.097886167
-0.012040958 0.0083895326 0.097887501
-0.01180781 0.0084305871 0.097887501
-0.012047191 0.008417068 0.097886167
-0.011572614 0.0084771682 0.097886167
-0.011099941 0.0084171165 0.097887501
-0.010643002 0.008295224 0.097887501
-0.010861247 0.0083945002 0.097886167
-0.01020322 0.0081118708 0.097886167
-0.0098407529 0.0078026084 0.097887501
-0.0098216319 0.0078233806 0.097886167
-0.0095253345 0.0074502407 0.097887501
-0.0095025795 0.0074669523 0.097886167
-0.0093945852 0.0072528874 0.097887501
-0.0092579508 0.0070558656 0.097886167
-0.0091665117 0.006834547 0.097886167
-0.0120796 0.0033117731 0.097587503
-0.012241169 0.003354873 0.097587503
-0.012336345 0.0033802621 0.097587503
-0.013049777 0.0037298962 0.097615734
-0.013457052 0.0040699411 0.097615734
-0.013262492 0.0038890468 0.097587503
-0.013261639 0.0038900687 0.097615734
-0.013234607 0.003867965 0.097587503
-0.013050527 0.0037287965 0.097587503
-0.013507864 0.0041247113 0.097587503
-0.013634194 0.0042678341 0.097615734
-0.013744471 0.0044157426 0.097587503
-0.013791408 0.0044819 0.097615734
-0.013927229 0.0047101397 0.097615734
-0.014129827 0.0052005053 0.097615734
-0.014041618 0.0049499143 0.097587503
-0.013928405 0.0047095153 0.097587503
-0.014196017 0.0054577901 0.097587503
-0.0141311 0.0052001178 0.097587503
-0.01423849 0.006251344 0.097587503
-0.014237164 0.0062512225 0.097615734
-0.014190697 0.0065590739 0.097587503
-0.01420014 0.0065142238 0.097615734
-0.014137904 0.0067724246 0.097615734
-0.014052276 0.0070239087 0.097587503
-0.013808007 0.0074951937 0.097587503
-0.013651883 0.0077101402 0.097615734
-0.013652925 0.0077109681 0.097587503
-0.013508404 0.0078757983 0.097587503
-0.013476785 0.0079098428 0.097615734
-0.013477743 0.0079107685 0.097587503
-0.01328323 0.0080917142 0.097615734
-0.012595327 0.0085216127 0.097587503
-0.012611194 0.0085155014 0.097587503
-0.012848787 0.0083965128 0.097587503
-0.012927303 0.0083471825 0.097587503
-0.013284094 0.0080927275 0.097587503
-0.012241083 0.0086449347 0.097587503
-0.012107197 0.008682128 0.097587503
-0.011845333 0.0087268893 0.097615734
-0.0118455 0.0087282099 0.097587503
-0.010758499 0.0086466456 0.097587503
-0.010791543 0.0086557986 0.097615734
-0.011050954 0.0087130899 0.097587503
-0.011125843 0.0087217931 0.097587503
-0.010538063 0.0085762721 0.097587503
-0.010538529 0.008575025 0.097615734
-0.010293907 0.0084714042 0.097587503
-0.010294491 0.0084702084 0.097615734
-0.010071408 0.0083491728 0.097587503
-0.010061709 0.0083423276 0.097615734
-0.0098423567 0.0081925783 0.097615734
-0.010061013 0.0083434628 0.097587503
-0.0097664241 0.0081309117 0.097587503
-0.0096384808 0.0080223568 0.097615734
-0.0090120835 0.0071716537 0.097587503
-0.0090610208 0.0072637415 0.097587503
-0.0091379229 0.0074056215 0.097615734
-0.0091367792 0.0074063023 0.097587503
-0.0092550097 0.0075847595 0.097587503
-0.0092835389 0.0076278211 0.097587503
-0.0089118704 0.0069256169 0.097615734
-0.0089106169 0.0069260653 0.097587503
-0.0088106114 0.0065588821 0.097587503
-0.0088346181 0.006671505 0.097615734
-0.0089090299 0.0069208439 0.097587503
-0.0087822517 0.006411124 0.097615734
-0.0087538948 0.0058813128 0.097615734
-0.008776851 0.0056166439 0.097587503
-0.0088102967 0.0054410249 0.097587503
-0.009123602 0.004618729 0.097615734
-0.009061167 0.0047362987 0.097587503
-0.0090001728 0.0048539778 0.097587503
-0.0090013836 0.0048545329 0.097615734
-0.0089024948 0.0051010316 0.097615734
-0.0089097172 0.0050794561 0.097587503
-0.0089012366 0.0051005962 0.097587503
-0.009266926 0.0043950449 0.097587503
-0.0094922278 0.0041249366 0.097587503
-0.0096168825 0.0039959117 0.097587503
-0.0096177943 0.0039968821 0.097615734
-0.0097661195 0.0038686842 0.097587503
-0.009819096 0.0038235206 0.097587503
-0.010037004 0.0036714505 0.097587503
-0.010512115 0.0034349929 0.097615734
-0.010405674 0.0034805583 0.097587503
-0.010268571 0.0035411215 0.097587503
-0.010037713 0.0036725779 0.097615734
-0.010071952 0.0036517815 0.097587503
-0.010763929 0.0033503398 0.097587503
-0.010758149 0.0033522507 0.097587503
-0.011125926 0.0032786457 0.097587503
-0.011023325 0.0032929794 0.097615734
-0.011874103 0.0032777612 0.097587503
-0.01181729 0.0032697057 0.097615734
-0.011552297 0.003251829 0.097615734
-0.011286816 0.0032596111 0.097615734
-0.0115 0.0032500001 0.097587503
-0.011286712 0.0032582837 0.097587503
-0.013626971 0.0042736959 0.097666658
-0.013255677 0.0038972087 0.097666658
-0.013044532 0.0037375779 0.097666658
-0.012823445 0.0035909188 0.097615734
-0.012818966 0.0035990709 0.097666658
-0.012581086 0.0034829807 0.097666658
-0.012584757 0.0034744344 0.097615734
