# .PCD v0.7 - Point Cloud Data file format
VERSION 0.7
FIELDS x y z
SIZE 4 4 4
TYPE F F F
COUNT 1 1 1
WIDTH 1278
HEIGHT 1
VIEWPOINT 0 0 0 1 0 0 0
POINTS 1278
DATA ascii
0.0062455833 3.7252903e-09 0.078642853
0.0078069791 3.7252903e-09 0.089562535
0.0078069791 -0.001535207 0.091122493
0.0062455833 3.7252903e-09 0.091122493
0.0062455833 3.7252903e-09 0.094242401
0.0078069791 -0.001535207 0.09736231
0.0062455833 3.7252903e-09 0.09736231
0.0078069791 3.7252903e-09 0.098922268
0.010929771 3.7252903e-09 0.0053249635
0.0093683749 3.7252903e-09 0.0068849176
0.010929771 3.7252903e-09 0.0084448718
0.010929771 3.7252903e-09 0.027164333
0.0093683749 3.7252903e-09 0.02872429
0.0093683749 3.7252903e-09 0.031844199
0.0093683749 3.7252903e-09 0.034964107
0.010929771 3.7252903e-09 0.077082895
0.0093683749 3.7252903e-09 0.091122493
0.010929771 3.7252903e-09 0.092682444
0.010929771 -0.001535207 0.09736231
0.010929771 3.7252903e-09 0.098922268
0.01405257 3.7252903e-09 0.0053249635
0.012491167 3.7252903e-09 0.010004828
0.01405257 3.7252903e-09 0.011564784
0.01405257 -0.001535207 0.025604378
0.01405257 3.7252903e-09 0.027164333
0.01405257 3.7252903e-09 0.077082895
0.01405257 3.7252903e-09 0.089562535
0.012491167 3.7252903e-09 0.091122493
0.01405257 3.7252903e-09 0.092682444
0.012491167 3.7252903e-09 0.094242401
0.012491167 3.7252903e-09 0.09736231
0.017175362 3.7252903e-09 0.0053249635
0.015613966 3.7252903e-09 0.013124738
0.017175362 -0.001535207 0.013124738
0.017175362 3.7252903e-09 0.014684692
0.017175362 -0.001535207 0.022484466
0.017175362 3.7252903e-09 0.024044424
0.015613966 3.7252903e-09 0.025604378
0.015613966 3.7252903e-09 0.078642853
0.017175362 3.7252903e-09 0.080202803
0.015613966 3.7252903e-09 0.091122493
0.017175362 -0.001535207 0.091122493
0.020298153 3.7252903e-09 -0.00091485679
0.018736757 3.7252903e-09 0.00064509735
0.018736757 3.7252903e-09 0.0037650075
0.020298153 3.7252903e-09 0.011564784
0.018736757 3.7252903e-09 0.013124738
0.018736757 3.7252903e-09 0.022484466
0.020298153 3.7252903e-09 0.020924512
0.020298153 3.7252903e-09 0.027164333
0.018736757 3.7252903e-09 0.02872429
0.020298153 -0.001535207 0.02872429
0.018736757 3.7252903e-09 0.031844199
0.020298153 -0.001535207 0.031844199
0.018736757 3.7252903e-09 0.034964107
0.020298153 -0.001535207 0.034964107
0.018736757 3.7252903e-09 0.081762761
0.018736757 3.7252903e-09 0.084882669
0.018736757 3.7252903e-09 0.088002577
0.018736757 3.7252903e-09 0.091122493
0.018736757 3.7252903e-09 0.094242401
0.020298153 3.7252903e-09 0.095802359
0.023420945 3.7252903e-09 -0.00091485679
0.023420945 3.7252903e-09 0.0053249635
0.021859549 3.7252903e-09 0.0068849176
0.021859549 3.7252903e-09 0.010004828
0.023420945 3.7252903e-09 0.017804604
0.021859549 3.7252903e-09 0.019364558
0.021859549 3.7252903e-09 0.02872429
0.021859549 3.7252903e-09 0.031844199
0.021859549 3.7252903e-09 0.034964107
0.023420945 3.7252903e-09 0.061483346
0.021859549 3.7252903e-09 0.063043296
0.023420945 3.7252903e-09 0.064603254
0.023420945 3.7252903e-09 0.092682444
0.021859549 3.7252903e-09 0.094242401
0.026543736 3.7252903e-09 -0.00091485679
0.024982341 3.7252903e-09 0.0068849176
0.026543736 -0.001535207 0.010004828
0.026543736 3.7252903e-09 0.0084448718
0.026543736 3.7252903e-09 0.011564784
0.024982341 3.7252903e-09 0.013124738
0.024982341 3.7252903e-09 0.01624465
0.026543736 3.7252903e-09 0.058363438
0.024982341 3.7252903e-09 0.059923388
0.024982341 3.7252903e-09 0.066163212
0.026543736 3.7252903e-09 0.067723162
0.026543736 3.7252903e-09 0.086442627
0.024982341 3.7252903e-09 0.088002577
0.024982341 3.7252903e-09 0.091122493
0.029666536 3.7252903e-09 -0.00091485679
0.02810514 3.7252903e-09 0.010004828
0.029666536 3.7252903e-09 0.055243522
0.02810514 3.7252903e-09 0.05680348
0.02810514 3.7252903e-09 0.06928312
0.02810514 3.7252903e-09 0.072403029
0.02810514 3.7252903e-09 0.075522944
0.02810514 3.7252903e-09 0.078642853
0.02810514 3.7252903e-09 0.081762761
0.02810514 3.7252903e-09 0.084882669
0.032789327 3.7252903e-09 -0.00091485679
0.032789327 3.7252903e-09 0.011564784
0.031227931 3.7252903e-09 0.013124738
0.032789327 3.7252903e-09 0.014684692
0.032789327 3.7252903e-09 0.055243522
0.034350723 3.7252903e-09 0.00064509735
0.035912119 3.7252903e-09 0.0022050515
0.035912119 3.7252903e-09 0.0084448718
0.034350723 3.7252903e-09 0.010004828
0.035912119 -0.001535207 0.013124738
0.035912119 3.7252903e-09 0.014684692
0.035912119 3.7252903e-09 0.055243522
0.037473515 3.7252903e-09 0.0037650075
0.037473515 3.7252903e-09 0.0068849176
0.037473515 3.7252903e-09 0.01624465
0.037473515 3.7252903e-09 0.019364558
0.037473515 3.7252903e-09 0.022484466
0.037473515 3.7252903e-09 0.025604378
0.037473515 3.7252903e-09 0.02872429
0.037473515 3.7252903e-09 0.031844199
0.037473515 3.7252903e-09 0.034964107
0.037473515 3.7252903e-09 0.038084019
0.037473515 3.7252903e-09 0.041203931
0.037473515 3.7252903e-09 0.044323839
0.037473515 3.7252903e-09 0.047443748
0.037473515 3.7252903e-09 0.050563663
0.037473515 3.7252903e-09 0.053683572
-0.03591213 0.003070429 0.011564784
-0.03591213 0.0015352145 0.013124738
-0.037473526 0.003070429 0.013124738
-0.037473526 0.003070429 0.01624465
-0.037473526 0.003070429 0.019364558
-0.037473526 0.003070429 0.022484466
-0.037473526 0.003070429 0.025604378
-0.037473526 0.003070429 0.02872429
-0.037473526 0.003070429 0.031844199
-0.037473526 0.003070429 0.034964107
-0.037473526 0.003070429 0.038084019
-0.037473526 0.003070429 0.041203931
-0.037473526 0.003070429 0.044323839
-0.037473526 0.003070429 0.047443748
-0.037473526 0.003070429 0.050563663
-0.037473526 0.003070429 0.053683572
-0.03591213 0.003070429 0.055243522
-0.032789335 0.003070429 0.0053249635
-0.034350734 0.003070429 0.0068849176
-0.034350734 0.003070429 0.010004828
-0.034350734 0.003070429 0.013124738
-0.032789335 0.003070429 0.011564784
-0.032789335 0.003070429 0.014684692
-0.032789335 0.003070429 0.055243522
-0.029666543 0.003070429 0.0053249635
-0.029666543 0.003070429 0.011564784
-0.029666543 0.003070429 0.014684692
-0.029666543 0.003070429 0.055243522
-0.026543749 0.003070429 0.0053249635
-0.028105147 0.003070429 0.013124738
-0.028105147 0.003070429 0.05680348
-0.026543749 0.003070429 0.058363438
-0.026543749 0.003070429 0.067723162
-0.028105147 0.003070429 0.06928312
-0.028105147 0.003070429 0.072403029
-0.028105147 0.003070429 0.075522944
-0.028105147 0.003070429 0.078642853
-0.028105147 0.003070429 0.081762761
-0.028105147 0.003070429 0.084882669
-0.026543749 0.003070429 0.086442627
-0.023420956 0.003070429 0.0053249635
-0.024982352 0.003070429 0.059923388
-0.023420956 0.003070429 0.061483346
-0.023420956 0.003070429 0.064603254
-0.024982352 0.003070429 0.066163212
-0.024982352 0.003070429 0.088002577
-0.024982352 0.003070429 0.091122493
-0.023420956 0.003070429 0.092682444
-0.020298161 0.003070429 0.0053249635
-0.020298161 0.003070429 0.0084448718
-0.02185956 0.003070429 0.010004828
-0.02185956 0.003070429 0.013124738
-0.02185956 0.003070429 0.01624465
-0.02185956 0.003070429 0.019364558
-0.020298161 0.0015352145 0.022484466
-0.020298161 0.003070429 0.020924512
-0.020298161 0.0015352145 0.025604378
-0.020298161 0.0015352145 0.02872429
-0.020298161 0.0015352145 0.031844199
-0.020298161 0.0015352145 0.034964107
-0.02185956 0.003070429 0.063043296
-0.02185956 0.003070429 0.094242401
-0.020298161 0.003070429 0.095802359
-0.017175369 0.003070429 0.0053249635
-0.018736765 0.003070429 0.010004828
-0.017175369 0.0015352145 0.010004828
-0.017175369 0.003070429 0.011564784
-0.017175369 0.003070429 0.020924512
-0.017175369 0.003070429 0.080202803
-0.018736765 0.003070429 0.081762761
-0.018736765 0.003070429 0.084882669
-0.018736765 0.003070429 0.088002577
-0.017175369 0.003070429 0.089562535
-0.017175369 0.0015352145 0.094242401
-0.017175369 0.003070429 0.095802359
-0.014052577 0.003070429 0.0053249635
-0.014052577 0.0015352145 0.010004828
-0.014052577 0.003070429 0.011564784
-0.015613973 0.003070429 0.022484466
-0.015613973 0.003070429 0.025604378
-0.014052577 0.0015352145 0.025604378
-0.014052577 0.003070429 0.027164333
-0.014052577 0.003070429 0.077082895
-0.015613973 0.003070429 0.078642853
-0.015613973 0.003070429 0.091122493
-0.015613973 0.003070429 0.094242401
-0.010929782 0.003070429 0.0053249635
-0.012491178 0.003070429 0.013124738
-0.010929782 0.0015352145 0.013124738
-0.010929782 0.003070429 0.014684692
-0.010929782 0.003070429 0.027164333
-0.010929782 0.003070429 0.077082895
-0.010929782 0.003070429 0.092682444
-0.012491178 0.003070429 0.094242401
-0.010929782 0.003070429 0.095802359
-0.0093683861 0.003070429 0.0068849176
-0.0078069866 0.003070429 0.0084448718
-0.0093683861 0.003070429 0.01624465
-0.0078069866 0.0015352145 0.01624465
-0.0078069866 0.003070429 0.017804604
-0.0093683861 0.003070429 0.02872429
-0.0093683861 0.003070429 0.031844199
-0.0093683861 0.003070429 0.034964107
-0.0078069866 0.003070429 0.077082895
-0.0078069866 0.003070429 0.089562535
-0.0093683861 0.003070429 0.091122493
-0.0078069866 0.003070429 0.095802359
-0.0046841949 0.003070429 0.0084448718
-0.0062455907 0.003070429 0.019364558
-0.0062455907 0.003070429 0.022484466
-0.0062455907 0.003070429 0.025604378
-0.0046841949 0.0015352145 0.02872429
-0.0046841949 0.003070429 0.027164333
-0.0046841949 0.0015352145 0.031844199
-0.0046841949 0.0015352145 0.034964107
-0.0062455907 0.003070429 0.078642853
-0.0046841949 0.003070429 0.080202803
-0.0062455907 0.003070429 0.091122493
-0.0062455907 0.003070429 0.094242401
-0.0015614033 0.003070429 0.0084448718
-0.0031227991 0.003070429 0.02872429
-0.0015614033 0.0015352145 0.031844199
-0.0015614033 0.003070429 0.030284245
-0.0031227991 0.003070429 0.081762761
-0.0031227991 0.003070429 0.084882669
-0.0015614033 0.003070429 0.086442627
-0.0015614033 0.003070429 0.092682444
-0.0031227991 0.003070429 0.094242401
-0.0015614033 0.003070429 0.095802359
0.0015613921 0.003070429 0.0084448718
-3.7252903e-09 0.003070429 0.031844199
-3.7252903e-09 0.003070429 0.034964107
0.0015613921 0.003070429 0.086442627
-3.7252903e-09 0.003070429 0.094242401
0.0046841875 0.003070429 0.0084448718
0.0046841875 0.003070429 0.080202803
0.0031227879 0.003070429 0.081762761
0.0031227879 0.003070429 0.084882669
0.0046841875 0.003070429 0.089562535
0.0046841875 0.0015352145 0.091122493
0.0031227879 0.003070429 0.091122493
0.0046841875 0.003070429 0.092682444
0.0062455833 0.003070429 0.010004828
0.0062455833 0.003070429 0.013124738
0.0062455833 0.003070429 0.01624465
0.0062455833 0.003070429 0.019364558
0.0062455833 0.003070429 0.022484466
0.0062455833 0.003070429 0.025604378
0.0062455833 0.003070429 0.02872429
0.0062455833 0.003070429 0.031844199
0.0062455833 0.003070429 0.034964107
0.0078069791 0.003070429 0.077082895
0.0062455833 0.003070429 0.078642853
0.0062455833 0.003070429 0.091122493
0.0078069791 0.0015352145 0.091122493
0.0078069791 0.003070429 0.092682444
0.0062455833 0.003070429 0.094242401
0.0062455833 0.003070429 0.09736231
0.0078069791 0.003070429 0.098922268
0.010929771 0.003070429 0.0053249635
0.0093683749 0.003070429 0.0068849176
0.010929771 0.003070429 0.0084448718
0.010929771 0.0015352145 0.02872429
0.010929771 0.003070429 0.030284245
0.0093683749 0.003070429 0.031844199
0.0093683749 0.003070429 0.034964107
0.010929771 0.003070429 0.077082895
0.010929771 0.003070429 0.092682444
0.010929771 0.003070429 0.098922268
0.01405257 0.003070429 0.0053249635
0.012491167 0.003070429 0.010004828
0.01405257 0.003070429 0.011564784
0.012491167 0.003070429 0.02872429
0.01405257 0.003070429 0.027164333
0.01405257 0.003070429 0.077082895
0.01405257 0.003070429 0.089562535
0.012491167 0.003070429 0.091122493
0.01405257 0.003070429 0.092682444
0.012491167 0.003070429 0.094242401
0.012491167 0.003070429 0.09736231
0.017175362 0.003070429 0.0053249635
0.015613966 0.003070429 0.013124738
0.017175362 0.0015352145 0.01624465
0.015613966 0.003070429 0.01624465
0.017175362 0.003070429 0.017804604
0.017175362 0.0015352145 0.025604378
0.017175362 0.0015352145 0.02872429
0.015613966 0.003070429 0.02872429
0.017175362 0.003070429 0.030284245
0.015613966 0.003070429 0.078642853
0.017175362 0.003070429 0.080202803
0.017175362 0.0015352145 0.091122493
0.017175362 0.003070429 0.089562535
0.017175362 0.003070429 0.092682444
0.020298153 0.003070429 -0.00091485679
0.018736757 0.003070429 0.00064509735
0.018736757 0.003070429 0.0037650075
0.020298153 0.003070429 0.011564784
0.018736757 0.003070429 0.013124738
0.018736757 0.003070429 0.01624465
0.020298153 0.0015352145 0.022484466
0.020298153 0.0015352145 0.025604378
0.018736757 0.003070429 0.031844199
0.018736757 0.003070429 0.034964107
0.018736757 0.003070429 0.081762761
0.018736757 0.003070429 0.084882669
0.018736757 0.003070429 0.088002577
0.018736757 0.003070429 0.094242401
0.020298153 0.003070429 0.095802359
0.023420945 0.003070429 -0.00091485679
0.023420945 0.003070429 0.0053249635
0.021859549 0.003070429 0.0068849176
0.021859549 0.003070429 0.010004828
0.023420945 0.003070429 0.011564784
0.023420945 0.0015352145 0.013124738
0.021859549 0.003070429 0.013124738
0.023420945 0.0015352145 0.01624465
0.021859549 0.003070429 0.01624465
0.021859549 0.003070429 0.019364558
0.021859549 0.003070429 0.022484466
0.021859549 0.003070429 0.025604378
0.021859549 0.003070429 0.02872429
0.021859549 0.003070429 0.031844199
0.021859549 0.003070429 0.034964107
0.023420945 0.003070429 0.061483346
0.021859549 0.003070429 0.063043296
0.023420945 0.003070429 0.064603254
0.023420945 0.003070429 0.092682444
0.021859549 0.003070429 0.094242401
0.026543736 0.003070429 -0.00091485679
0.026543736 0.0015352145 0.0068849176
0.026543736 0.003070429 0.0053249635
0.026543736 0.003070429 0.011564784
0.026543736 0.003070429 0.058363438
0.024982341 0.003070429 0.059923388
0.024982341 0.003070429 0.066163212
0.026543736 0.003070429 0.067723162
0.026543736 0.003070429 0.086442627
0.024982341 0.003070429 0.088002577
0.024982341 0.003070429 0.091122493
0.029666536 0.003070429 -0.00091485679
0.02810514 0.003070429 0.0068849176
0.02810514 0.003070429 0.010004828
0.029666536 0.003070429 0.055243522
0.02810514 0.003070429 0.05680348
0.02810514 0.003070429 0.06928312
0.02810514 0.003070429 0.072403029
0.02810514 0.003070429 0.075522944
0.02810514 0.003070429 0.078642853
0.02810514 0.003070429 0.081762761
0.02810514 0.003070429 0.084882669
0.032789327 0.003070429 -0.00091485679
0.032789327 0.003070429 0.011564784
0.031227931 0.003070429 0.013124738
0.032789327 0.003070429 0.014684692
0.032789327 0.003070429 0.055243522
0.034350723 0.003070429 0.00064509735
0.035912119 0.003070429 0.0022050515
0.035912119 0.003070429 0.0084448718
0.034350723 0.003070429 0.010004828
0.035912119 0.003070429 0.011564784
0.035912119 0.0015352145 0.013124738
0.034350723 0.003070429 0.013124738
0.035912119 0.003070429 0.055243522
0.037473515 0.003070429 0.0037650075
0.037473515 0.003070429 0.0068849176
0.037473515 0.003070429 0.013124738
0.037473515 0.003070429 0.01624465
0.037473515 0.003070429 0.019364558
0.037473515 0.003070429 0.022484466
0.037473515 0.003070429 0.025604378
0.037473515 0.003070429 0.02872429
0.037473515 0.003070429 0.031844199
0.037473515 0.003070429 0.034964107
0.037473515 0.003070429 0.038084019
0.037473515 0.003070429 0.041203931
0.037473515 0.003070429 0.044323839
0.037473515 0.003070429 0.047443748
0.037473515 0.003070429 0.050563663
0.037473515 0.003070429 0.053683572
-0.03591213 0.0061408505 0.0053249635
-0.03591213 0.0046056397 0.0068849176
-0.037473526 0.0061408505 0.0068849176
-0.03591213 0.0046056397 0.010004828
-0.037473526 0.0061408505 0.010004828
-0.03591213 0.0046056397 0.013124738
-0.03591213 0.0061408505 0.011564784
-0.03591213 0.0061408505 0.014684692
-0.037473526 0.0061408505 0.01624465
-0.037473526 0.0061408505 0.019364558
-0.037473526 0.0061408505 0.022484466
-0.037473526 0.0061408505 0.025604378
-0.037473526 0.0061408505 0.02872429
-0.037473526 0.0061408505 0.031844199
-0.037473526 0.0061408505 0.034964107
-0.037473526 0.0061408505 0.038084019
-0.037473526 0.0061408505 0.041203931
-0.037473526 0.0061408505 0.044323839
-0.037473526 0.0061408505 0.047443748
-0.037473526 0.0061408505 0.050563663
-0.037473526 0.0061408505 0.053683572
-0.03591213 0.0046056397 0.05680348
-0.037473526 0.0061408505 0.05680348
-0.03591213 0.0061408505 0.058363438
-0.034350734 0.0061408505 0.0068849176
-0.032789335 0.0046056397 0.0068849176
-0.032789335 0.0061408505 0.0084448718
-0.032789335 0.0061408505 0.011564784
-0.032789335 0.0061408505 0.014684692
-0.032789335 0.0046056397 0.05680348
-0.032789335 0.0061408505 0.058363438
-0.029666543 0.0061408505 0.0022050515
-0.029666543 0.0046056397 0.0037650075
-0.031227939 0.0061408505 0.0037650075
-0.031227939 0.0061408505 0.0068849176
-0.029666543 0.0046056397 0.010004828
-0.031227939 0.0061408505 0.010004828
-0.029666543 0.0061408505 0.0084448718
-0.029666543 0.0061408505 0.014684692
-0.029666543 0.0046056397 0.05680348
-0.029666543 0.0061408505 0.058363438
-0.029666543 0.0061408505 0.070843078
-0.029666543 0.0046056397 0.072403029
-0.031227939 0.0061408505 0.072403029
-0.029666543 0.0046056397 0.075522944
-0.031227939 0.0061408505 0.075522944
-0.029666543 0.0046056397 0.078642853
-0.031227939 0.0061408505 0.078642853
-0.029666543 0.0046056397 0.081762761
-0.031227939 0.0061408505 0.081762761
-0.029666543 0.0061408505 0.083322719
-0.026543749 0.0061408505 0.0022050515
-0.026543749 0.0046056397 0.0037650075
-0.028105147 0.0061408505 0.010004828
-0.028105147 0.0061408505 0.013124738
-0.026543749 0.0061408505 0.058363438
-0.026543749 0.0061408505 0.067723162
-0.028105147 0.0061408505 0.06928312
-0.028105147 0.0061408505 0.084882669
-0.026543749 0.0061408505 0.086442627
-0.023420956 0.0061408505 0.0022050515
-0.023420956 0.0046056397 0.0037650075
-0.024982352 0.0061408505 0.059923388
-0.023420956 0.0046056397 0.063043296
-0.024982352 0.0061408505 0.063043296
-0.024982352 0.0061408505 0.066163212
-0.024982352 0.0061408505 0.088002577
-0.023420956 0.0046056397 0.091122493
-0.023420956 0.0061408505 0.089562535
-0.020298161 0.0061408505 0.0022050515
-0.020298161 0.0046056397 0.0037650075
-0.020298161 0.0061408505 0.0084448718
-0.02185956 0.0061408505 0.010004828
-0.02185956 0.0061408505 0.013124738
-0.02185956 0.0061408505 0.01624465
-0.020298161 0.0046056397 0.019364558
-0.020298161 0.0061408505 0.017804604
-0.02185956 0.0061408505 0.091122493
-0.020298161 0.0046056397 0.094242401
-0.020298161 0.0061408505 0.092682444
-0.017175369 0.0061408505 0.0022050515
-0.017175369 0.0046056397 0.0037650075
-0.018736765 0.0061408505 0.010004828
-0.017175369 0.0061408505 0.011564784
-0.017175369 0.0061408505 0.017804604
-0.017175369 0.0046056397 0.019364558
-0.017175369 0.0046056397 0.081762761
-0.017175369 0.0046056397 0.084882669
-0.017175369 0.0046056397 0.088002577
-0.018736765 0.0061408505 0.094242401
-0.017175369 0.0046056397 0.09736231
-0.018736765 0.0061408505 0.09736231
-0.017175369 0.0061408505 0.098922268
-0.014052577 0.0061408505 0.0022050515
-0.014052577 0.0046056397 0.0037650075
-0.015613973 0.0061408505 0.013124738
-0.014052577 0.0046056397 0.013124738
-0.014052577 0.0061408505 0.014684692
-0.015613973 0.0061408505 0.019364558
-0.015613973 0.0061408505 0.022484466
-0.015613973 0.0061408505 0.025604378
-0.015613973 0.0061408505 0.02872429
-0.014052577 0.0046056397 0.02872429
-0.015613973 0.0061408505 0.031844199
-0.014052577 0.0046056397 0.031844199
-0.015613973 0.0061408505 0.034964107
-0.014052577 0.0046056397 0.034964107
-0.014052577 0.0046056397 0.078642853
-0.014052577 0.0061408505 0.080202803
-0.015613973 0.0061408505 0.081762761
-0.015613973 0.0061408505 0.084882669
-0.015613973 0.0061408505 0.088002577
-0.014052577 0.0061408505 0.089562535
-0.014052577 0.0046056397 0.091122493
-0.014052577 0.0046056397 0.094242401
-0.014052577 0.0046056397 0.09736231
-0.014052577 0.0061408505 0.098922268
-0.010929782 0.0061408505 0.0022050515
-0.010929782 0.0046056397 0.0037650075
-0.010929782 0.0061408505 0.014684692
-0.010929782 0.0046056397 0.02872429
-0.010929782 0.0046056397 0.031844199
-0.010929782 0.0061408505 0.033404153
-0.012491178 0.0061408505 0.034964107
-0.010929782 0.0046056397 0.078642853
-0.010929782 0.0061408505 0.080202803
-0.010929782 0.0061408505 0.089562535
-0.010929782 0.0046056397 0.091122493
-0.010929782 0.0046056397 0.09736231
-0.010929782 0.0061408505 0.098922268
-0.0093683861 0.0061408505 0.0037650075
-0.0078069866 0.0061408505 0.0053249635
-0.0078069866 0.0046056397 0.0068849176
-0.0093683861 0.0061408505 0.010004828
-0.0078069866 0.0061408505 0.0084448718
-0.0078069866 0.0046056397 0.010004828
-0.0078069866 0.0061408505 0.011564784
-0.0093683861 0.0061408505 0.01624465
-0.0078069866 0.0061408505 0.017804604
-0.0093683861 0.0061408505 0.034964107
-0.0078069866 0.0046056397 0.078642853
-0.0078069866 0.0061408505 0.080202803
-0.0093683861 0.0061408505 0.091122493
-0.0078069866 0.0046056397 0.091122493
-0.0078069866 0.0061408505 0.092682444
-0.0078069866 0.0046056397 0.09736231
-0.0078069866 0.0061408505 0.098922268
-0.0062455907 0.0061408505 0.0068849176
-0.0046841949 0.0046056397 0.010004828
-0.0046841949 0.0061408505 0.011564784
-0.0062455907 0.0061408505 0.019364558
-0.0046841949 0.0046056397 0.022484466
-0.0046841949 0.0061408505 0.020924512
-0.0046841949 0.0046056397 0.025604378
-0.0062455907 0.0061408505 0.081762761
-0.0046841949 0.0046056397 0.081762761
-0.0046841949 0.0061408505 0.083322719
-0.0046841949 0.0046056397 0.094242401
-0.0046841949 0.0061408505 0.092682444
-0.0046841949 0.0061408505 0.095802359
-0.0062455907 0.0061408505 0.09736231
-0.0031227991 0.0061408505 0.010004828
-0.0015614033 0.0061408505 0.0084448718
-0.0031227991 0.0061408505 0.022484466
-0.0031227991 0.0061408505 0.025604378
-0.0031227991 0.0061408505 0.02872429
-0.0015614033 0.0061408505 0.030284245
-0.0031227991 0.0061408505 0.084882669
-0.0015614033 0.0061408505 0.086442627
-0.0015614033 0.0061408505 0.089562535
-0.0015614033 0.0046056397 0.091122493
-0.0031227991 0.0061408505 0.091122493
-0.0015614033 0.0061408505 0.095802359
0.0015613921 0.0061408505 0.0084448718
-3.7252903e-09 0.0061408505 0.031844199
-3.7252903e-09 0.0061408505 0.034964107
-3.7252903e-09 0.0061408505 0.088002577
0.0015613921 0.0046056397 0.088002577
0.0015613921 0.0046056397 0.091122493
-3.7252903e-09 0.0061408505 0.094242401
0.0015613921 0.0061408505 0.092682444
0.0031227879 0.0061408505 0.010004828
0.0046841875 0.0046056397 0.010004828
0.0031227879 0.0061408505 0.013124738
0.0046841875 0.0046056397 0.013124738
0.0031227879 0.0061408505 0.01624465
0.0046841875 0.0046056397 0.01624465
0.0031227879 0.0061408505 0.019364558
0.0046841875 0.0046056397 0.019364558
0.0031227879 0.0061408505 0.022484466
0.0046841875 0.0046056397 0.022484466
0.0031227879 0.0061408505 0.025604378
0.0046841875 0.0046056397 0.025604378
0.0031227879 0.0061408505 0.02872429
0.0046841875 0.0046056397 0.02872429
0.0031227879 0.0061408505 0.031844199
0.0046841875 0.0046056397 0.031844199
0.0031227879 0.0061408505 0.034964107
0.0046841875 0.0046056397 0.034964107
0.0046841875 0.0046056397 0.081762761
0.0046841875 0.0061408505 0.083322719
0.0031227879 0.0061408505 0.084882669
0.0031227879 0.0061408505 0.088002577
0.0046841875 0.0061408505 0.089562535
0.0031227879 0.0061408505 0.094242401
0.0046841875 0.0046056397 0.094242401
0.0046841875 0.0061408505 0.095802359
0.0078069791 0.0061408505 0.0053249635
0.0078069791 0.0046056397 0.0068849176
0.0062455833 0.0061408505 0.0068849176
0.0078069791 0.0061408505 0.0084448718
0.0078069791 0.0046056397 0.078642853
0.0078069791 0.0061408505 0.080202803
0.0062455833 0.0061408505 0.081762761
0.0062455833 0.0061408505 0.091122493
0.0078069791 0.0061408505 0.092682444
0.0062455833 0.0061408505 0.09736231
0.0078069791 0.0061408505 0.098922268
0.010929771 0.0061408505 0.0022050515
0.010929771 0.0046056397 0.0037650075
0.0093683749 0.0061408505 0.0037650075
0.010929771 0.0061408505 0.0084448718
0.010929771 0.0061408505 0.030284245
0.0093683749 0.0061408505 0.031844199
0.0093683749 0.0061408505 0.034964107
0.010929771 0.0046056397 0.078642853
0.010929771 0.0061408505 0.080202803
0.010929771 0.0061408505 0.086442627
0.010929771 0.0046056397 0.088002577
0.0093683749 0.0061408505 0.088002577
0.010929771 0.0046056397 0.091122493
0.0093683749 0.0061408505 0.091122493
0.010929771 0.0061408505 0.098922268
0.01405257 0.0061408505 0.0022050515
0.01405257 0.0046056397 0.0037650075
0.012491167 0.0061408505 0.010004828
0.01405257 0.0061408505 0.011564784
0.01405257 0.0061408505 0.024044424
0.01405257 0.0046056397 0.025604378
0.012491167 0.0061408505 0.025604378
0.012491167 0.0061408505 0.02872429
0.01405257 0.0046056397 0.078642853
0.01405257 0.0061408505 0.080202803
0.012491167 0.0061408505 0.088002577
0.01405257 0.0061408505 0.089562535
0.012491167 0.0061408505 0.094242401
0.01405257 0.0061408505 0.092682444
0.012491167 0.0061408505 0.09736231
0.017175362 0.0061408505 0.0022050515
0.017175362 0.0046056397 0.0037650075
0.017175362 0.0061408505 0.0084448718
0.015613966 0.0061408505 0.010004828
0.017175362 0.0046056397 0.010004828
0.017175362 0.0046056397 0.013124738
0.017175362 0.0046056397 0.01624465
0.015613966 0.0061408505 0.025604378
0.017175362 0.0061408505 0.027164333
0.017175362 0.0046056397 0.02872429
0.015613966 0.0061408505 0.081762761
0.017175362 0.0046056397 0.081762761
0.017175362 0.0046056397 0.084882669
0.015613966 0.0061408505 0.084882669
0.017175362 0.0046056397 0.088002577
0.015613966 0.0061408505 0.088002577
0.015613966 0.0061408505 0.094242401
0.017175362 0.0046056397 0.094242401
0.017175362 0.0061408505 0.095802359
0.020298153 0.0061408505 -0.00091485679
0.018736757 0.0061408505 0.00064509735
0.020298153 0.0046056397 0.0068849176
0.020298153 0.0061408505 0.0053249635
0.018736757 0.0061408505 0.0068849176
0.020298153 0.0046056397 0.010004828
0.020298153 0.0046056397 0.013124738
0.018736757 0.0061408505 0.013124738
0.020298153 0.0061408505 0.011564784
0.020298153 0.0046056397 0.01624465
0.018736757 0.0061408505 0.01624465
0.018736757 0.0061408505 0.019364558
0.020298153 0.0046056397 0.019364558
0.020298153 0.0046056397 0.022484466
0.018736757 0.0061408505 0.022484466
0.020298153 0.0046056397 0.025604378
0.018736757 0.0061408505 0.025604378
0.020298153 0.0046056397 0.02872429
0.020298153 0.0046056397 0.031844199
0.020298153 0.0046056397 0.034964107
0.018736757 0.0061408505 0.094242401
0.020298153 0.0061408505 0.092682444
0.020298153 0.0046056397 0.094242401
0.023420945 0.0061408505 -0.00091485679
0.023420945 0.0061408505 0.0053249635
0.023420945 0.0046056397 0.010004828
0.023420945 0.0061408505 0.0084448718
0.021859549 0.0061408505 0.010004828
0.023420945 0.0046056397 0.063043296
0.023420945 0.0061408505 0.089562535
0.021859549 0.0061408505 0.091122493
0.023420945 0.0046056397 0.091122493
0.026543736 0.0061408505 -0.00091485679
0.026543736 0.0061408505 0.0053249635
0.026543736 0.0061408505 0.0084448718
0.026543736 0.0046056397 0.010004828
0.026543736 0.0061408505 0.058363438
0.024982341 0.0061408505 0.059923388
0.024982341 0.0061408505 0.063043296
0.024982341 0.0061408505 0.066163212
0.026543736 0.0061408505 0.067723162
0.026543736 0.0061408505 0.086442627
0.024982341 0.0061408505 0.088002577
0.029666536 0.0061408505 -0.00091485679
0.029666536 0.0046056397 0.0068849176
0.029666536 0.0061408505 0.0053249635
0.029666536 0.0061408505 0.0084448718
0.029666536 0.0046056397 0.013124738
0.029666536 0.0061408505 0.011564784
0.02810514 0.0061408505 0.013124738
0.029666536 0.0061408505 0.014684692
0.029666536 0.0046056397 0.05680348
0.029666536 0.0061408505 0.058363438
0.02810514 0.0061408505 0.06928312
0.029666536 0.0046056397 0.072403029
0.029666536 0.0061408505 0.070843078
0.029666536 0.0046056397 0.075522944
0.029666536 0.0046056397 0.078642853
0.029666536 0.0046056397 0.081762761
0.029666536 0.0061408505 0.083322719
0.02810514 0.0061408505 0.084882669
0.032789327 0.0061408505 -0.00091485679
0.031227931 0.0061408505 0.0068849176
0.032789327 0.0061408505 0.011564784
0.032789327 0.0061408505 0.014684692
0.032789327 0.0046056397 0.05680348
0.032789327 0.0061408505 0.058363438
0.031227931 0.0061408505 0.072403029
0.031227931 0.0061408505 0.075522944
0.031227931 0.0061408505 0.078642853
0.031227931 0.0061408505 0.081762761
0.034350723 0.0061408505 0.00064509735
0.035912119 0.0061408505 0.0022050515
0.035912119 0.0046056397 0.010004828
0.035912119 0.0046056397 0.013124738
0.035912119 0.0061408505 0.011564784
0.035912119 0.0061408505 0.014684692
0.035912119 0.0046056397 0.05680348
0.035912119 0.0061408505 0.058363438
0.037473515 0.0061408505 0.0037650075
0.037473515 0.0061408505 0.0068849176
0.037473515 0.0061408505 0.010004828
0.037473515 0.0061408505 0.01624465
0.037473515 0.0061408505 0.019364558
0.037473515 0.0061408505 0.022484466
0.037473515 0.0061408505 0.025604378
0.037473515 0.0061408505 0.02872429
0.037473515 0.0061408505 0.031844199
0.037473515 0.0061408505 0.034964107
0.037473515 0.0061408505 0.038084019
0.037473515 0.0061408505 0.041203931
0.037473515 0.0061408505 0.044323839
0.037473515 0.0061408505 0.047443748
0.037473515 0.0061408505 0.050563663
0.037473515 0.0061408505 0.053683572
0.037473515 0.0061408505 0.05680348
-0.039034925 0.009211272 0.061483346
-0.039034925 0.0076760575 0.063043296
-0.040596321 0.009211272 0.063043296
-0.039034925 0.0076760575 0.066163212
-0.040596321 0.009211272 0.066163212
-0.039034925 0.009211272 0.067723162
-0.03591213 0.0076760575 0.0068849176
-0.03591213 0.0076760575 0.010004828
-0.03591213 0.0076760575 0.01624465
-0.03591213 0.0076760575 0.019364558
-0.03591213 0.0076760575 0.022484466
-0.03591213 0.0076760575 0.025604378
-0.03591213 0.0076760575 0.02872429
-0.03591213 0.0076760575 0.031844199
-0.03591213 0.0076760575 0.034964107
-0.03591213 0.0076760575 0.038084019
-0.03591213 0.0076760575 0.041203931
-0.03591213 0.0076760575 0.044323839
-0.03591213 0.0076760575 0.047443748
-0.03591213 0.0076760575 0.050563663
-0.03591213 0.0076760575 0.053683572
-0.03591213 0.009211272 0.055243522
-0.037473526 0.009211272 0.05680348
-0.03591213 0.0076760575 0.059923388
-0.037473526 0.009211272 0.059923388
-0.03591213 0.0076760575 0.063043296
-0.03591213 0.0076760575 0.066163212
-0.037473526 0.009211272 0.06928312
-0.03591213 0.0076760575 0.06928312
-0.03591213 0.009211272 0.070843078
-0.032789335 0.009211272 -0.00091485679
-0.032789335 0.0076760575 0.00064509735
-0.034350734 0.009211272 0.00064509735
-0.032789335 0.0076760575 0.0037650075
-0.034350734 0.009211272 0.0037650075
-0.032789335 0.009211272 0.0053249635
-0.032789335 0.0076760575 0.010004828
-0.034350734 0.009211272 0.01624465
-0.032789335 0.009211272 0.014684692
-0.034350734 0.009211272 0.019364558
-0.034350734 0.009211272 0.022484466
-0.034350734 0.009211272 0.025604378
-0.034350734 0.009211272 0.02872429
-0.034350734 0.009211272 0.031844199
-0.034350734 0.009211272 0.034964107
-0.034350734 0.009211272 0.038084019
-0.034350734 0.009211272 0.041203931
-0.034350734 0.009211272 0.044323839
-0.034350734 0.009211272 0.047443748
-0.034350734 0.009211272 0.050563663
-0.034350734 0.009211272 0.053683572
-0.032789335 0.0076760575 0.059923388
-0.032789335 0.0076760575 0.063043296
-0.032789335 0.0076760575 0.066163212
-0.032789335 0.0076760575 0.06928312
-0.034350734 0.009211272 0.072403029
-0.032789335 0.0076760575 0.072403029
-0.032789335 0.009211272 0.073962986
-0.029666543 0.009211272 -0.00091485679
-0.029666543 0.0076760575 0.00064509735
-0.031227939 0.009211272 0.0068849176
-0.029666543 0.009211272 0.0084448718
-0.029666543 0.009211272 0.014684692
-0.029666543 0.0076760575 0.059923388
-0.029666543 0.0076760575 0.063043296
-0.029666543 0.0076760575 0.066163212
-0.029666543 0.0076760575 0.06928312
-0.031227939 0.009211272 0.075522944
-0.031227939 0.009211272 0.078642853
-0.029666543 0.0076760575 0.081762761
-0.029666543 0.009211272 0.080202803
-0.026543749 0.009211272 -0.00091485679
-0.026543749 0.0076760575 0.00064509735
-0.028105147 0.009211272 0.010004828
-0.028105147 0.009211272 0.013124738
-0.026543749 0.0076760575 0.059923388
-0.026543749 0.0076760575 0.063043296
-0.026543749 0.0076760575 0.066163212
-0.028105147 0.009211272 0.081762761
-0.026543749 0.0076760575 0.084882669
-0.026543749 0.009211272 0.083322719
-0.023420956 0.009211272 -0.00091485679
-0.023420956 0.0076760575 0.00064509735
-0.023420956 0.009211272 0.0084448718
-0.024982352 0.009211272 0.010004828
-0.023420956 0.0076760575 0.010004828
-0.023420956 0.009211272 0.011564784
-0.024982352 0.009211272 0.084882669
-0.023420956 0.0076760575 0.088002577
-0.023420956 0.009211272 0.086442627
-0.020298161 0.009211272 -0.00091485679
-0.020298161 0.0076760575 0.00064509735
-0.020298161 0.009211272 0.0084448718
-0.02185956 0.009211272 0.013124738
-0.020298161 0.0076760575 0.01624465
-0.020298161 0.009211272 0.014684692
-0.02185956 0.009211272 0.088002577
-0.02185956 0.009211272 0.091122493
-0.020298161 0.009211272 0.092682444
-0.017175369 0.009211272 -0.00091485679
-0.017175369 0.0076760575 0.00064509735
-0.018736765 0.009211272 0.010004828
-0.017175369 0.0076760575 0.013124738
-0.018736765 0.009211272 0.013124738
-0.017175369 0.0076760575 0.01624465
-0.017175369 0.0076760575 0.094242401
-0.017175369 0.009211272 0.092682444
-0.017175369 0.0076760575 0.09736231
-0.014052577 0.009211272 -0.00091485679
-0.014052577 0.0076760575 0.00064509735
-0.014052577 0.0076760575 0.01624465
-0.014052577 0.0076760575 0.019364558
-0.014052577 0.009211272 0.020924512
-0.015613973 0.009211272 0.022484466
-0.015613973 0.009211272 0.025604378
-0.015613973 0.009211272 0.02872429
-0.015613973 0.009211272 0.031844199
-0.015613973 0.009211272 0.034964107
-0.014052577 0.0076760575 0.081762761
-0.014052577 0.0076760575 0.084882669
-0.014052577 0.0076760575 0.088002577
-0.015613973 0.009211272 0.094242401
-0.015613973 0.009211272 0.09736231
-0.014052577 0.009211272 0.098922268
-0.010929782 0.009211272 -0.00091485679
-0.010929782 0.0076760575 0.00064509735
-0.010929782 0.009211272 0.011564784
-0.012491178 0.009211272 0.013124738
-0.010929782 0.0076760575 0.013124738
-0.012491178 0.009211272 0.01624465
-0.012491178 0.009211272 0.019364558
-0.010929782 0.0076760575 0.034964107
-0.010929782 0.0076760575 0.081762761
-0.010929782 0.0076760575 0.084882669
-0.010929782 0.0076760575 0.088002577
-0.010929782 0.009211272 0.098922268
-0.0078069866 0.009211272 -0.00091485679
-0.0078069866 0.0076760575 0.00064509735
-0.0078069866 0.0076760575 0.0037650075
-0.0078069866 0.009211272 0.0084448718
-0.0093683861 0.009211272 0.010004828
-0.0078069866 0.0076760575 0.013124738
-0.0078069866 0.0076760575 0.01624465
-0.0078069866 0.0076760575 0.081762761
-0.0078069866 0.009211272 0.083322719
-0.0093683861 0.009211272 0.084882669
-0.0078069866 0.009211272 0.086442627
-0.0078069866 0.0076760575 0.088002577
-0.0078069866 0.0076760575 0.091122493
-0.0078069866 0.009211272 0.098922268
-0.0046841949 0.009211272 -0.0040347679
-0.0046841949 0.0076760575 -0.0024748128
-0.0062455907 0.009211272 -0.0024748128
-0.0046841949 0.0076760575 0.00064509735
-0.0046841949 0.0076760575 0.0037650075
-0.0046841949 0.0076760575 0.0068849176
-0.0046841949 0.009211272 0.0084448718
-0.0046841949 0.0076760575 0.013124738
-0.0046841949 0.0076760575 0.01624465
-0.0046841949 0.0076760575 0.019364558
-0.0062455907 0.009211272 0.084882669
-0.0046841949 0.0076760575 0.084882669
-0.0046841949 0.0076760575 0.088002577
-0.0046841949 0.0076760575 0.091122493
-0.0046841949 0.009211272 0.095802359
-0.0062455907 0.009211272 0.09736231
-0.0031227991 0.009211272 -0.0024748128
-0.0031227991 0.009211272 0.00064509735
-0.0031227991 0.009211272 0.0037650075
-0.0031227991 0.009211272 0.0068849176
-0.0015614033 0.0076760575 0.010004828
-0.0015614033 0.009211272 0.011564784
-0.0031227991 0.009211272 0.013124738
-0.0031227991 0.009211272 0.01624465
-0.0031227991 0.009211272 0.019364558
-0.0031227991 0.009211272 0.022484466
-0.0031227991 0.009211272 0.025604378
-0.0031227991 0.009211272 0.02872429
-0.0015614033 0.0076760575 0.031844199
-0.0031227991 0.009211272 0.031844199
-0.0015614033 0.0076760575 0.034964107
-0.0031227991 0.009211272 0.034964107
-0.0015614033 0.0076760575 0.088002577
-0.0015614033 0.009211272 0.095802359
0.0015613921 0.0076760575 0.010004828
0.0015613921 0.009211272 0.011564784
0.0015613921 0.009211272 0.092682444
-3.7252903e-09 0.009211272 0.094242401
0.0046841875 0.009211272 -0.0040347679
0.0046841875 0.0076760575 -0.0024748128
0.0031227879 0.009211272 -0.0024748128
0.0046841875 0.0076760575 0.00064509735
0.0031227879 0.009211272 0.00064509735
0.0046841875 0.0076760575 0.0037650075
0.0031227879 0.009211272 0.0037650075
0.0046841875 0.0076760575 0.0068849176
0.0031227879 0.009211272 0.0068849176
0.0046841875 0.009211272 0.0084448718
0.0031227879 0.009211272 0.013124738
0.0031227879 0.009211272 0.01624465
0.0031227879 0.009211272 0.019364558
0.0031227879 0.009211272 0.022484466
0.0031227879 0.009211272 0.025604378
0.0031227879 0.009211272 0.02872429
0.0031227879 0.009211272 0.031844199
0.0031227879 0.009211272 0.034964107
0.0046841875 0.0076760575 0.084882669
0.0046841875 0.0076760575 0.088002577
0.0031227879 0.009211272 0.094242401
0.0046841875 0.009211272 0.095802359
0.0062455833 0.009211272 -0.0024748128
0.0078069791 0.009211272 -0.00091485679
0.0078069791 0.0076760575 0.00064509735
0.0078069791 0.0076760575 0.0037650075
0.0078069791 0.009211272 0.0084448718
0.0078069791 0.0076760575 0.081762761
0.0078069791 0.009211272 0.083322719
0.0062455833 0.009211272 0.084882669
0.0078069791 0.009211272 0.086442627
0.0078069791 0.0076760575 0.088002577
0.0078069791 0.0076760575 0.091122493
0.0062455833 0.009211272 0.09736231
0.0078069791 0.009211272 0.098922268
0.010929771 0.009211272 -0.00091485679
0.010929771 0.0076760575 0.00064509735
0.010929771 0.009211272 0.0084448718
0.010929771 0.0076760575 0.031844199
0.010929771 0.0076760575 0.034964107
0.010929771 0.0076760575 0.081762761
0.0093683749 0.009211272 0.084882669
0.010929771 0.0076760575 0.084882669
0.010929771 0.009211272 0.098922268
0.01405257 0.009211272 -0.00091485679
0.01405257 0.0076760575 0.00064509735
0.01405257 0.009211272 0.0053249635
0.012491167 0.009211272 0.0068849176
0.01405257 0.0076760575 0.0068849176
0.012491167 0.009211272 0.010004828
0.01405257 0.009211272 0.0084448718
0.01405257 0.0076760575 0.013124738
0.012491167 0.009211272 0.013124738
0.01405257 0.0076760575 0.01624465
0.012491167 0.009211272 0.01624465
0.01405257 0.009211272 0.017804604
0.01405257 0.009211272 0.020924512
0.01405257 0.0076760575 0.022484466
0.012491167 0.009211272 0.022484466
0.012491167 0.009211272 0.025604378
0.012491167 0.009211272 0.02872429
0.012491167 0.009211272 0.031844199
0.012491167 0.009211272 0.034964107
0.01405257 0.0076760575 0.081762761
0.01405257 0.0076760575 0.084882669
0.01405257 0.0076760575 0.088002577
0.01405257 0.009211272 0.092682444
0.012491167 0.009211272 0.094242401
0.012491167 0.009211272 0.09736231
0.017175362 0.009211272 -0.00091485679
0.017175362 0.0076760575 0.00064509735
0.017175362 0.0076760575 0.0068849176
0.017175362 0.009211272 0.0053249635
0.015613966 0.009211272 0.010004828
0.017175362 0.0076760575 0.013124738
0.017175362 0.009211272 0.011564784
0.017175362 0.009211272 0.014684692
0.015613966 0.009211272 0.01624465
0.015613966 0.009211272 0.019364558
0.017175362 0.0076760575 0.019364558
0.017175362 0.009211272 0.017804604
0.017175362 0.0076760575 0.022484466
0.017175362 0.0076760575 0.025604378
0.017175362 0.0076760575 0.094242401
0.017175362 0.009211272 0.092682444
0.020298153 0.009211272 -0.00091485679
0.020298153 0.0076760575 0.0068849176
0.018736757 0.009211272 0.0068849176
0.020298153 0.009211272 0.0084448718
0.018736757 0.009211272 0.013124738
0.020298153 0.0076760575 0.013124738
0.020298153 0.009211272 0.014684692
0.018736757 0.009211272 0.01624465
0.020298153 0.009211272 0.092682444
0.023420945 0.009211272 -0.00091485679
0.023420945 0.009211272 0.0053249635
0.021859549 0.009211272 0.0068849176
0.021859549 0.009211272 0.010004828
0.023420945 0.009211272 0.0084448718
0.021859549 0.009211272 0.013124738
0.023420945 0.009211272 0.086442627
0.021859549 0.009211272 0.088002577
0.023420945 0.0076760575 0.088002577
0.021859549 0.009211272 0.091122493
0.026543736 0.009211272 -0.00091485679
0.024982341 0.009211272 0.0068849176
0.026543736 0.0076760575 0.0068849176
0.026543736 0.0076760575 0.059923388
0.026543736 0.0076760575 0.063043296
0.026543736 0.0076760575 0.066163212
0.026543736 0.009211272 0.083322719
0.024982341 0.009211272 0.084882669
0.026543736 0.0076760575 0.084882669
0.029666536 0.009211272 -0.00091485679
0.029666536 0.009211272 0.0053249635
0.02810514 0.009211272 0.0068849176
0.029666536 0.0076760575 0.010004828
0.02810514 0.009211272 0.010004828
0.02810514 0.009211272 0.013124738
0.029666536 0.009211272 0.014684692
0.029666536 0.0076760575 0.059923388
0.029666536 0.0076760575 0.063043296
0.029666536 0.0076760575 0.066163212
0.029666536 0.0076760575 0.06928312
0.029666536 0.009211272 0.080202803
0.02810514 0.009211272 0.081762761
0.029666536 0.0076760575 0.081762761
0.032789327 0.009211272 -0.00091485679
0.032789327 0.0076760575 0.0068849176
0.032789327 0.009211272 0.0053249635
0.032789327 0.0076760575 0.010004828
0.032789327 0.009211272 0.014684692
0.032789327 0.0076760575 0.059923388
0.032789327 0.0076760575 0.063043296
0.032789327 0.0076760575 0.066163212
0.032789327 0.0076760575 0.06928312
0.032789327 0.0076760575 0.072403029
0.032789327 0.009211272 0.073962986
0.031227931 0.009211272 0.075522944
0.031227931 0.009211272 0.078642853
0.034350723 0.009211272 0.00064509735
0.034350723 0.009211272 0.0037650075
0.035912119 0.0076760575 0.0037650075
0.035912119 0.0076760575 0.0068849176
0.035912119 0.0076760575 0.010004828
0.034350723 0.009211272 0.01624465
0.035912119 0.0076760575 0.01624465
0.034350723 0.009211272 0.019364558
0.035912119 0.0076760575 0.019364558
0.034350723 0.009211272 0.022484466
0.035912119 0.0076760575 0.022484466
0.034350723 0.009211272 0.025604378
0.035912119 0.0076760575 0.025604378
0.034350723 0.009211272 0.02872429
0.035912119 0.0076760575 0.02872429
0.034350723 0.009211272 0.031844199
0.035912119 0.0076760575 0.031844199
0.034350723 0.009211272 0.034964107
0.035912119 0.0076760575 0.034964107
0.034350723 0.009211272 0.038084019
0.035912119 0.0076760575 0.038084019
0.034350723 0.009211272 0.041203931
0.035912119 0.0076760575 0.041203931
0.034350723 0.009211272 0.044323839
0.035912119 0.0076760575 0.044323839
0.034350723 0.009211272 0.047443748
0.035912119 0.0076760575 0.047443748
0.034350723 0.009211272 0.050563663
0.035912119 0.0076760575 0.050563663
0.034350723 0.009211272 0.053683572
0.035912119 0.0076760575 0.053683572
0.035912119 0.009211272 0.055243522
0.035912119 0.0076760575 0.059923388
0.035912119 0.0076760575 0.063043296
0.035912119 0.0076760575 0.066163212
0.035912119 0.0076760575 0.06928312
0.035912119 0.009211272 0.070843078
0.034350723 0.009211272 0.072403029
0.037473515 0.009211272 0.05680348
0.037473515 0.009211272 0.059923388
0.039034918 0.009211272 0.061483346
0.039034918 0.0076760575 0.063043296
0.039034918 0.0076760575 0.066163212
0.039034918 0.009211272 0.067723162
0.037473515 0.009211272 0.06928312
0.040596314 0.009211272 0.063043296
0.040596314 0.009211272 0.066163212
-0.039034925 0.010746486 0.063043296
-0.039034925 0.010746486 0.066163212
-0.03591213 0.010746486 0.05680348
-0.03591213 0.010746486 0.059923388
-0.03591213 0.012281694 0.061483346
-0.037473526 0.012281694 0.063043296
-0.037473526 0.012281694 0.066163212
-0.03591213 0.010746486 0.06928312
-0.03591213 0.012281694 0.067723162
-0.032789335 0.010746486 0.00064509735
-0.032789335 0.012281694 0.0022050515
-0.034350734 0.012281694 0.0037650075
-0.032789335 0.012281694 0.0053249635
-0.032789335 0.012281694 0.014684692
-0.034350734 0.012281694 0.01624465
-0.034350734 0.012281694 0.019364558
-0.034350734 0.012281694 0.022484466
-0.034350734 0.012281694 0.025604378
-0.034350734 0.012281694 0.02872429
-0.034350734 0.012281694 0.031844199
-0.034350734 0.012281694 0.034964107
-0.034350734 0.012281694 0.038084019
-0.032789335 0.010746486 0.041203931
-0.032789335 0.012281694 0.039643973
-0.032789335 0.010746486 0.044323839
-0.032789335 0.010746486 0.047443748
-0.032789335 0.010746486 0.050563663
-0.032789335 0.010746486 0.053683572
-0.032789335 0.012281694 0.055243522
-0.034350734 0.012281694 0.05680348
-0.034350734 0.012281694 0.059923388
-0.034350734 0.012281694 0.06928312
-0.032789335 0.010746486 0.072403029
-0.032789335 0.012281694 0.070843078
-0.031227939 0.012281694 0.00064509735
-0.029666543 0.012281694 -0.00091485679
-0.029666543 0.010746486 0.0068849176
-0.029666543 0.012281694 0.0053249635
-0.029666543 0.012281694 0.011564784
-0.029666543 0.010746486 0.013124738
-0.031227939 0.012281694 0.013124738
-0.029666543 0.010746486 0.041203931
-0.029666543 0.012281694 0.039643973
-0.029666543 0.010746486 0.044323839
-0.029666543 0.010746486 0.047443748
-0.029666543 0.010746486 0.050563663
-0.029666543 0.012281694 0.052123614
-0.031227939 0.012281694 0.053683572
-0.031227939 0.012281694 0.072403029
-0.029666543 0.010746486 0.075522944
-0.029666543 0.012281694 0.073962986
-0.029666543 0.010746486 0.078642853
-0.026543749 0.012281694 -0.00091485679
-0.028105147 0.012281694 0.0068849176
-0.028105147 0.012281694 0.010004828
-0.026543749 0.010746486 0.041203931
-0.026543749 0.012281694 0.039643973
-0.026543749 0.010746486 0.044323839
-0.026543749 0.010746486 0.047443748
-0.026543749 0.012281694 0.049003705
-0.028105147 0.012281694 0.050563663
-0.028105147 0.012281694 0.075522944
-0.028105147 0.012281694 0.078642853
-0.026543749 0.010746486 0.081762761
-0.026543749 0.012281694 0.080202803
-0.023420956 0.012281694 -0.00091485679
-0.023420956 0.012281694 0.0084448718
-0.024982352 0.012281694 0.010004828
-0.023420956 0.012281694 0.011564784
-0.024982352 0.012281694 0.041203931
-0.023420956 0.010746486 0.044323839
-0.023420956 0.012281694 0.042763885
-0.023420956 0.010746486 0.047443748
-0.023420956 0.012281694 0.049003705
-0.024982352 0.012281694 0.081762761
-0.023420956 0.010746486 0.084882669
-0.023420956 0.012281694 0.083322719
-0.020298161 0.012281694 -0.00091485679
-0.020298161 0.012281694 0.0084448718
-0.02185956 0.012281694 0.013124738
-0.020298161 0.012281694 0.014684692
-0.02185956 0.012281694 0.044323839
-0.02185956 0.012281694 0.047443748
-0.02185956 0.012281694 0.084882669
-0.020298161 0.010746486 0.088002577
-0.020298161 0.012281694 0.086442627
-0.020298161 0.010746486 0.091122493
-0.017175369 0.012281694 -0.00091485679
-0.017175369 0.012281694 0.0053249635
-0.018736765 0.012281694 0.0068849176
-0.017175369 0.010746486 0.0068849176
-0.018736765 0.012281694 0.010004828
-0.017175369 0.012281694 0.0084448718
-0.018736765 0.012281694 0.013124738
-0.018736765 0.012281694 0.088002577
-0.017175369 0.010746486 0.091122493
-0.017175369 0.012281694 0.089562535
-0.015613973 0.012281694 0.00064509735
-0.014052577 0.010746486 0.00064509735
-0.014052577 0.012281694 0.0022050515
-0.014052577 0.010746486 0.0068849176
-0.014052577 0.012281694 0.0053249635
-0.014052577 0.012281694 0.0084448718
-0.014052577 0.010746486 0.022484466
-0.014052577 0.010746486 0.025604378
-0.014052577 0.010746486 0.02872429
-0.014052577 0.010746486 0.031844199
-0.014052577 0.010746486 0.034964107
-0.014052577 0.009211272 0.036524065
-0.014052577 0.010746486 0.091122493
-0.014052577 0.012281694 0.089562535
-0.014052577 0.010746486 0.094242401
-0.014052577 0.010746486 0.09736231
-0.010929782 0.010746486 0.00064509735
-0.010929782 0.012281694 0.0022050515
-0.012491178 0.012281694 0.0068849176
-0.010929782 0.010746486 0.010004828
-0.012491178 0.012281694 0.010004828
-0.010929782 0.012281694 0.0084448718
-0.010929782 0.012281694 0.011564784
-0.010929782 0.010746486 0.013124738
-0.010929782 0.010746486 0.01624465
-0.010929782 0.010746486 0.019364558
-0.010929782 0.012281694 0.020924512
-0.012491178 0.012281694 0.022484466
-0.012491178 0.012281694 0.025604378
-0.012491178 0.012281694 0.02872429
-0.012491178 0.012281694 0.031844199
-0.012491178 0.012281694 0.034964107
-0.010929782 0.012281694 0.036524065
-0.010929782 0.009211272 0.036524065
-0.012491178 0.012281694 0.091122493
-0.012491178 0.012281694 0.094242401
